13	4
4.87789	468.421	5	9.46997	2.04326	-0.842941	-7.80159
3.56677	468.937	5	6.42487	0.790955	-2.54216	-7.80898
3.36024	470.319	5	2.36606	1.38105	1.67815	-7.80802
9.15935	513.562	5.05002	4.76777	1.30208	-1.01183	-7.80655
9.51205	503.016	5.04375	4.60392	0.84419	-0.796981	-7.80666
12.1265	501.983	5.06616	4.50104	0.764663	-0.673093	-7.80574
1.75466	431.926	5	-1.08837	-9.55584	6.5221	-7.69674
0.45419	432.438	5	-7.13826	-0.194533	11.5181	-5.13497
5.4354	456.5	4.99674	5.37474	3.37538	1.33845	-7.80422
2.95181	251.933	5	-0.785561	-0.0703106	-0.647412	-7.80648
0.76404	250.193	5	-7.14023	0.453488	11.4368	-5.13481
5.47095	267.848	5.01371	-0.0127846	0.0464481	-1.65091	-7.8101
4.72834	256.437	5	0.456379	2.21815	-1.86309	-7.803
3.42592	256.949	5	1.1091	-0.0412349	-0.586292	-7.80806
3.2194	258.332	5	-0.677759	-0.052919	-0.543223	-7.80567
4.3123	259.201	5	0.970401	0.112105	-1.48303	-7.8101
7.33285	255.391	4.99739	2.31413	0.741756	-2.61471	-7.80918
3.15833	250.55	5	2.05301	0.255042	-0.631463	-7.80826
2.06451	249.68	5	-1.18466	-10.1097	6.59015	-7.69686
2.27103	248.299	5	1.66672	-12.9611	-2.99729	-7.69685
3.5715	247.786	5	-0.76197	0.06692	-0.725582	-7.80771
4.66406	248.655	5	2.35141	-0.793631	-1.9918	-7.8097
4.46173	250.037	5	1.80343	-1.30045	-1.19635	-7.80479
25.587	238.649	6.17824	-6.33371	0.913954	-15.3169	-7.76255
12.6478	211.686	4.90839	1.93967	-1.73521	-0.00110806	-7.80819
12.4411	213.068	4.90182	1.27603	-1.85108	-0.384103	-7.80517
11.5488	210.822	4.91966	1.02161	-1.5532	0.408789	-7.80708
10.2476	211.333	4.92582	0.931267	-1.24603	0.299606	-7.80753
8.7407	213.227	4.94471	1.19148	-0.967995	-0.0694534	-7.80782
10.0417	212.714	4.92477	1.25265	-1.21325	-0.030098	-7.80703
11.14	213.579	4.91286	1.40309	-0.729783	-0.212681	-7.80779
4.01038	220.294	5	1.94218	-0.94767	-0.0584925	-7.80672
13.1913	224.455	5.09929	1.22025	0.289939	-2.38368	-7.80865
12.0933	223.592	5.07385	1.43676	0.00173873	-2.23065	-7.80484
13.6085	221.692	5.0719	3.08495	-1.13618	-2.09361	-7.80276
12.3071	222.209	5.06056	2.88362	0.0934481	-2.01956	-7.80871
10.3171	219.102	4.98846	2.33076	-0.490724	-0.955368	-7.80591
9.90585	221.863	5.02563	2.46729	-0.00832627	-1.58299	-7.80848
11.2071	221.346	5.03185	2.54287	-0.944845	-1.57006	-7.80526
11.4175	219.965	5.00844	2.80277	-0.912747	-1.1744	-7.80823
13.3339	215.311	4.91571	1.60723	-1.50426	-0.793915	-7.80671
14.434	216.172	4.93629	1.38653	-0.797532	-0.883583	-7.80622
42.0892	218.323	4.98651	4.23238	2.65078	0.114046	-7.80644
39.6673	218.516	4.97385	3.69926	2.84603	-0.214071	-7.80632
40.7101	216.326	4.96802	4.71699	2.77512	0.243276	-7.80687
40.8224	217.723	4.97547	4.21183	2.71659	0.122232	-7.80722
42.2013	219.719	4.99413	3.56207	2.4025	0.0321641	-7.80715
41.3828	224.699	5.03088	2.5918	2.27192	-0.581358	-7.80655
39.7796	219.913	4.99033	3.66927	2.87996	-0.211159	-7.80678
41.0463	220.512	4.99832	3.46343	2.67987	0.0372567	-7.80694
41.1583	221.908	5.01119	2.69691	2.60333	-0.074521	-7.80678
49.2922	232.481	5	-5.762	-1.37722	-12.0083	-5.13446
37.3587	220.111	4.98823	3.84321	2.57566	-0.526108	-7.80754
38.626	220.708	5.00104	3.58251	2.59511	-0.298769	-7.80709
40.1176	224.099	5.04139	2.33747	2.5029	-0.382528	-7.80696
40.0054	222.703	5.02634	2.59559	2.32472	-0.123784	-7.80786
37.5881	222.902	5.05121	2.62625	2.91221	-0.326831	-7.80819
38.7394	222.104	5.02603	2.81419	2.55144	-0.313869	-7.80662
20.1456	219.114	5.18944	5.11735	-6.69472	7.91498	-7.78454
20.4995	216.345	5.29151	-6.90512	7.14272	2.44815	-7.81198
31.353	221.319	5.01693	10.8261	-1.15519	-1.86126	-7.80693
14.1522	209.795	4.96092	1.28163	-2.9807	1.08362	-7.80588
15.4532	209.29	5.02288	1.89068	-3.69586	1.72225	-7.8078
14.8422	213.415	4.90931	1.64195	-2.66605	-1.57847	-7.80189
15.0531	212.034	4.92499	3.8161	-2.73488	-0.922871	-7.81095
15.943	214.274	4.93019	1.37646	-0.550947	-2.30499	-7.81017
20.8418	204.529	6.14266	-45.8174	-6.42463	1.58852	-7.70702
23.0742	206.241	6.31416	-15.4793	-16.8161	8.0275	-7.7386
1.96592	209.392	5	-1.24854	-9.40669	6.47208	-7.69663
0.66545	209.905	5	-7.13822	-0.194465	11.518	-5.13497
9.15105	210.466	4.94369	0.645984	-0.968582	0.316808	-7.80779
9.356	209.084	4.95243	0.1832	-0.942631	0.371078	-7.80652
5.45465	210.62	4.99097	0.52041	-0.320474	0.253984	-7.807
7.6441	212.36	4.96104	0.681372	-0.217597	0.0488483	-7.80718
7.85025	210.977	4.95948	0.514803	-0.154487	0.171373	-7.80684
6.7554	210.108	4.97677	0.475231	-0.562438	0.199187	-7.80731
3.94745	212.514	5	0.467884	-0.393832	0.151295	-7.80795
6.34325	212.871	4.9806	0.627683	-0.0298459	-0.0298566	-7.80746
5.24825	212.002	4.99204	0.53411	-0.477143	0.131124	-7.80781
0.130257	197.106	5	17.5915	9.87967	-3.60803	-2.87956
0.81103	200.741	5	-0.100921	-6.59432	-11.6041	-5.13484
1.01755	199.358	5	-7.13999	0.453462	11.4366	-5.13481
7.5802	204.58	5.00196	-0.398793	0.2764	0.072001	-7.80717
4.29904	201.969	5	0.463486	-0.506873	-0.0374868	-7.80815
6.48745	203.708	5.00435	-0.210503	-0.366351	0.112552	-7.80681
2.79214	203.863	5	0.828005	0.279095	-0.277246	-7.80683
4.9808	205.602	5	0.601694	-0.232353	-0.222298	-7.80792
4.09412	203.35	5	0.600194	-0.607943	-0.287123	-7.80728
5.1872	204.221	5.00115	-0.305675	-0.450406	-0.0513065	-7.80833
0.397854	203.505	5	-7.13942	0.453111	11.4364	-5.13481
0.191332	204.888	5	-0.100163	-6.59451	-11.6036	-5.13484
19.4389	240.19	5.29871	6.38546	-3.68244	8.26083	-7.78697
20.7253	239.676	5.49931	8.43195	2.23425	11.4224	-7.80851
23.1176	239.969	5.90713	10.1706	7.54376	11.584	-7.77869
21.8517	240.517	5.65965	12.0167	0.399673	12.5623	-7.78651
20.8501	238.286	5.56322	-9.94689	0.0912795	10.3351	-7.76099
17.6267	235.684	4.97055	-5.44182	3.72462	-4.0566	-7.80398
19.9711	236.02	5.26147	-20.8226	6.92805	-6.70553	-7.77375
18.9127	235.149	5.06049	-9.54381	0.872483	-9.84504	-7.78337
19.789	237.41	5.30444	-6.77924	9.02325	3.35538	-7.80815
6.17925	246.751	4.98804	3.06588	0.96177	-2.29501	-7.80714
5.9665	248.134	4.99216	3.75606	1.14352	-2.35968	-7.8026
7.06865	248.996	4.986	3.26518	0.532497	-1.92012	-7.80704
6.5931	243.985	4.98125	2.20159	0.362416	-1.92656	-7.80544
5.29235	244.503	4.99313	2.24119	0.334558	-1.69844	-7.81081
2.6842	245.533	5	-0.0507176	-0.43416	-0.0167176	-7.80612
3.77802	246.403	5	2.10985	0.622896	-1.2193	-7.81084
5.08	245.886	4.99468	2.66592	0.40922	-1.83684	-7.80312
6.80245	242.602	4.9783	3.85819	0.549619	-1.59508	-7.8072
8.3155	240.701	4.95597	3.51644	0.137163	-1.59539	-7.80627
8.10435	242.084	4.96148	3.6493	-0.0211566	-1.72793	-7.80658
6.5328	236.206	4.97971	3.0384	0.777832	-1.14253	-7.8069
8.72555	237.937	4.94548	2.70216	0.570486	-1.51044	-7.8076
7.83405	235.688	4.96311	2.91728	0.341096	-1.19685	-7.80707
8.93395	236.553	4.94347	2.7522	0.770112	-1.22887	-7.80655
12.6351	236.381	4.89483	2.00271	1.06538	-1.21323	-7.80868
15.2406	235.341	4.89495	-0.00558301	1.9573	-2.56075	-7.80797
9.3445	233.788	4.95478	2.25872	0.719742	-1.51522	-7.80623
10.4441	234.652	4.93182	2.33465	0.779367	-1.6468	-7.80717
13.531	238.63	4.90736	3.52328	0.592191	-0.477566	-7.81055
13.7344	237.246	4.89375	1.47216	0.500666	-0.844366	-7.80414
15.0336	236.726	4.89976	1.00808	2.34433	-1.07075	-7.81021
14.633	239.492	4.93693	3.28341	-0.200809	0.118082	-7.80181
9.61725	240.183	4.93699	3.6244	0.550607	-1.53251	-7.80682
9.8262	238.8	4.92971	2.76146	0.393405	-1.4696	-7.80624
11.1276	238.283	4.91222	3.1869	0.680428	-0.907083	-7.80824
12.229	239.147	4.90987	3.39571	-0.187988	-0.772139	-7.80528
1.5434	294.116	5	-1.06995	-9.56761	6.52816	-7.69681
2.36962	288.586	5	1.75262	-12.3818	-3.07036	-7.6969
2.7828	285.822	5	0.000299901	0.164217	-0.18436	-7.80603
1.48232	286.335	5	-0.231712	-22.0475	-9.84125	-7.58577
1.27581	287.716	5	5.68513	-28.0197	-15.3761	-4.98339
1.74992	292.733	5	1.7379	-12.3864	-3.06753	-7.6967
0.656105	291.863	5	-0.112184	-7.22898	-11.496	-5.135
0.862625	290.481	5	-7.13564	-0.193707	11.5169	-5.13497
2.1631	289.969	5	-1.05059	-9.57799	6.53278	-7.69688
0.0364083	296.01	5	-0.111629	-7.22857	-11.4956	-5.135
0.24293	294.628	5	-7.13799	-0.193891	11.5179	-5.13497
2.98931	284.44	5	5.76484	0.554253	-1.97345	-7.80798
2.10203	282.188	5	1.78658	-13.0724	-2.96279	-7.69691
1.8955	283.569	5	-1.07534	-10.2099	6.62368	-7.69694
3.4025	281.675	5	2.06312	1.44973	1.55531	-7.80527
24.3134	240.739	5.91019	24.6794	27.5013	-2.9123	-7.70347
26.7883	240.653	5.72779	14.0798	-0.878657	-16.0337	-7.77755
25.553	240.033	5.95034	12.9005	5.61117	-15.6752	-7.77279
21.7123	241.911	5.6122	42.5	-0.951146	4.49992	-7.71417
4.91786	279.777	5	6.64349	1.71897	-2.5191	-7.80084
18.7076	40.0449	4.32407	-3.99533	11.5626	0.292425	-7.81263
18.897	38.6515	4.33129	-17.9245	9.91304	-9.47246	-7.77739
16.1073	33.324	4.7862	11.9833	-1.62036	-2.88712	-7.80144
13.282	35.7616	4.89062	8.65122	1.76378	-5.23976	-7.80806
14.5849	35.2317	4.84399	8.91013	-0.587659	-5.79484	-7.79479
14.8023	33.8482	4.85288	10.3561	-0.128916	-4.01869	-7.80601
13.0745	12.4645	4.94856	6.87221	-3.37772	-1.15734	-7.80716
18.5544	565.694	4.87937	-0.685524	11.8355	1.35129	-7.81865
31.6639	411.838	4.81636	15.1516	0.175051	8.49638	-7.77381
30.4883	412.606	4.74852	19.2212	10.9603	14.2801	-7.80137
28.2925	414.148	4.41813	-27.4418	21.3052	19.0539	-7.71807
29.509	414.803	4.60411	-16.9009	19.5952	4.92143	-7.77863
17.205	419.444	4.95261	7.58916	2.99292	4.00383	-7.80831
18.882	416.162	4.78573	-3.18782	3.62745	2.41735	-7.78764
18.6989	417.549	4.84321	3.94914	4.00304	4.6465	-7.81398
44.8726	423.51	4.99691	8.72795	3.56288	2.59176	-7.79782
43.708	424.293	4.99311	9.14125	4.06095	3.18814	-7.80419
43.0397	415.934	4.98922	10.9435	2.44788	0.833968	-7.8019
43.1511	417.333	4.9878	11.0571	2.48774	1.5573	-7.8005
32.1711	418.844	4.75994	19.8479	2.04396	-4.68162	-7.78127
31.986	416.052	4.7906	9.16067	12.5188	-2.45892	-7.81305
33.0557	413.86	4.86497	6.99607	6.06511	3.94167	-7.79804
31.8939	414.644	4.80978	2.35634	11.9237	2.59777	-7.80434
41.7658	415.337	4.98212	11.2056	1.32132	0.8121	-7.80396
19.3652	430.366	4.81487	27.1725	2.00976	3.34504	-7.78462
27.2045	419.193	4.44234	33.1849	29.9826	-9.91511	-7.67553
21.0436	427.08	4.75535	3.73542	11.7716	8.44105	-7.77678
20.8875	428.482	4.75072	21.3254	13.9332	12.5002	-7.79949
20.4914	431.232	4.74786	37.7183	2.58622	-0.127793	-7.7722
20.2199	432.611	4.74072	20.2414	-1.83899	-10.5379	-7.76145
12.9413	406.78	4.97107	8.99089	1.25906	2.80722	-7.80357
14.254	406.282	4.9576	9.39029	1.57389	3.28313	-7.80703
11.1352	402.272	4.99723	6.00921	1.73707	2.82821	-7.80454
16.298	417.18	4.94597	5.39628	4.40979	2.32058	-7.81116
14.9909	417.688	4.97824	5.75103	3.82595	2.39751	-7.80121
9.83285	427.491	4.98732	11.0757	1.97613	1.70613	-7.80283
11.1485	426.995	4.98187	11.6941	1.98836	2.42114	-7.80377
13.2085	413.17	4.97373	7.83992	2.90615	-0.305292	-7.80928
24.2605	403.551	3.69861	-14.626	4.32533	8.32962	-7.7816
25.3638	404.397	3.55282	-8.92414	-0.262629	6.95814	-7.77011
22.6987	408.246	4.55146	25.7763	5.99579	15.9914	-7.76596
25.7196	393.837	3.76432	-8.33087	2.1928	11.9441	-7.76541
23.2595	394.919	4.33939	8.05523	2.60641	12.6874	-7.8073
32.2367	401.309	4.56073	-9.30609	1.02029	8.59077	-7.78432
17.1615	411.637	4.87448	14.3499	1.80507	-4.17764	-7.81189
19.311	413.375	4.73053	-3.47132	0.717348	-10.1547	-7.78725
27.9913	67.9861	6.73611	-22.8632	-10.5877	-11.5625	-7.7524
29.145	67.2096	6.77733	-15.65	3.51178	-1.68835	-7.77642
22.1694	401.809	4.33886	-17.9722	8.69509	-5.40097	-7.78108
18.071	396.96	4.85747	7.26757	0.17075	1.66464	-7.80727
28.1502	398.104	4.09605	69.8742	17.3298	14.2767	-7.66085
29.3605	397.334	4.29813	41.5811	-1.8092	-3.7705	-7.71628
24.3873	395.763	4.20827	11.2364	0.324002	14.1174	-7.78356
25.6584	395.221	3.9816	9.98746	7.17168	13.626	-7.7767
26.8498	396.001	4.00965	23.9435	26.3663	-0.139932	-7.70598
26.7997	397.448	4.06937	86.4633	32.6565	1.85397	-7.5814
21.9713	395.426	4.53716	6.22645	-3.21174	9.87316	-7.78621
19.3774	396.454	4.78084	8.80309	-1.01428	2.745	-7.8044
24.6138	392.989	3.92042	-12.9256	4.68235	11.3525	-7.79066
23.3823	393.528	4.25591	-10.0477	0.451288	11.5799	-7.76044
15.0504	400.748	4.96546	3.81382	3.07701	1.88589	-7.80654
12.4439	401.769	4.9926	6.02682	2.07956	2.88901	-7.80735
14.8878	385.186	4.7728	2.37699	0.0969362	1.42298	-7.8063
14.4757	387.944	4.8676	2.15945	1.043	0.791885	-7.80906
15.9853	386.055	4.78361	2.98843	-0.359289	1.19698	-7.80808
15.7792	387.437	4.83326	2.16479	-0.53272	0.656747	-7.8045
8.78585	384.955	4.92715	1.75981	0.773729	1.92519	-7.80699
15.0906	383.803	4.72333	2.13758	0.124731	1.5811	-7.80682
1.6795	366.911	5	1.71607	-13.012	-2.98174	-7.69683
1.47298	368.293	5	30.0131	-2.92931	-15.0331	-8.08487
2.56679	369.163	5	-0.291519	0.109876	0.181974	-7.80771
32.9332	164.269	4.86011	2.53393	2.73157	1.01081	-7.79886
41.6448	151.027	5.02948	6.28088	2.17484	2.90408	-7.80604
33.0168	134.811	5.06283	8.96075	0.358599	-1.24782	-7.79478
35.9405	125.478	4.92199	9.97286	2.48945	2.8721	-7.8053
38.3394	109.187	4.87715	5.49871	2.72345	2.27557	-7.80377
39.5038	108.408	4.90827	5.82801	2.63793	2.47878	-7.80716
38.4462	110.585	4.8818	6.84981	2.63718	1.97704	-7.80929
39.7105	111.196	4.91402	6.85759	2.05044	2.27959	-7.80411
37.2792	111.361	4.84949	6.82163	2.40884	1.75689	-7.80131
37.383	112.76	4.85968	9.4101	2.47946	1.94745	-7.80794
11.2217	802.85	5.04537	4.0116	1.92973	-0.958712	-7.80717
12.5249	802.334	5.0497	3.35651	1.63414	-1.72087	-7.80423
12.7416	800.95	5.04674	5.96785	1.45645	-1.66545	-7.81039
24.7632	782.692	6.13406	-73.7959	-2.44745	-10.285	-7.22826
26.9716	782.488	5.50267	-28.1228	14.3412	14.0202	-7.73045
25.9272	783.319	5.84047	-48.3892	-1.95941	-5.2017	-7.71481
37.1416	696.111	5.02456	3.28892	3.04596	1.56476	-7.80853
27.3346	711.57	5.76702	6.05108	9.774	-10.6584	-7.7771
24.84	712.923	5.62997	27.7413	12.7072	9.88463	-7.77361
29.2603	704.396	5.63039	12.129	-4.43274	13.6613	-7.75901
27.3561	708.792	6.28968	-13.7372	3.10393	-7.66303	-7.7832
49.6302	684.637	5	-5.48367	-1.31655	-11.8265	-5.13499
49.3016	680.455	5	-5.73409	-1.37943	-12.0136	-5.13446
49.4111	681.849	5	-1.58039	-4.98423	11.7474	-5.13504
27.3633	663.195	5.86082	-11.2268	-10.4167	22.4562	-7.39554
26.1585	677.239	6.49974	-20.2331	-16.0675	1.03544	-7.73222
34.6309	664.027	4.89987	-1.60241	2.47143	3.75475	-7.80021
36.2064	668.827	4.93412	4.404	0.964937	-0.460301	-7.80181
37.3659	668.04	4.91438	4.49557	2.58181	0.169141	-7.81041
43.0901	678.831	4.98666	4.64518	1.34589	1.15811	-7.80617
44.2503	678.046	4.99415	4.70043	2.42097	1.35675	-7.80396
48.0401	679.854	5	-0.598912	-10.5823	-5.9558	-7.69654
46.8882	680.646	5	2.69997	0.351409	1.21292	-7.80794
45.6224	680.041	5	4.03361	-1.59128	0.340626	-7.80604
45.5161	678.651	5	3.74699	-1.53331	0.939254	-7.80945
43.922	673.863	4.98963	5.20639	1.8968	1.56049	-7.80322
45.1881	674.47	5	3.65222	-1.0291	1.55105	-7.80979
44.1367	676.649	4.99322	3.6565	2.34229	1.44056	-7.80825
45.2933	675.861	5	3.88999	-1.07659	0.71486	-7.80579
46.5595	676.465	5	2.90357	0.373759	1.27711	-7.80775
49.0825	677.669	5	-1.57924	-4.98186	11.748	-5.13505
47.9305	678.461	5	1.39859	-11.8868	3.87176	-7.69682
46.669	677.859	5	0.654134	0.326606	-0.301311	-7.80765
44.8505	670.284	4.99234	3.22738	1.78861	1.19623	-7.80938
38.6302	668.645	4.9209	4.14239	1.5208	0.688137	-7.80447
47.9869	663.734	5	1.11165	-12.0098	4.12956	-7.6965
43.1439	602.434	4.97461	6.67948	1.71789	-1.73839	-7.80395
37.8817	628.061	5.34043	3.33807	-1.101	0.36168	-7.80669
40.1954	626.487	5.23713	1.83577	-0.297587	-0.103769	-7.80646
47.8272	615.373	5	0.964111	-12.0958	3.95807	-7.69704
48.9792	614.582	5	-1.8211	-5.13828	12.0034	-5.13484
40.58	615.946	5.09667	1.29728	0.232708	0.170481	-7.80777
39.34	647.521	4.91883	13.4156	2.35064	4.96512	-7.80346
25.3359	660.887	5.1477	78.1077	16.5342	-11.36	-7.64002
26.7414	660.341	5.00125	94.8951	35.7816	2.74198	-7.53413
46.0571	654.766	5	7.96945	-3.21396	1.77462	-7.80286
40.1668	657.297	4.96951	5.29523	3.40398	2.57871	-7.80817
47.4422	625.92	5	0.764711	0.0742954	0.397051	-7.80728
45.6776	634.476	5	7.253	-3.64701	-1.98905	-7.80605
45.4635	631.682	5	4.66731	-2.82863	-0.891178	-7.80936
46.8381	633.679	5	4.16108	2.21154	-2.90301	-7.80524
46.7285	632.285	5	2.04548	1.01031	0.927684	-7.80834
42.9306	630.479	5.05158	3.70325	1.19818	-0.360284	-7.80502
42.7175	627.696	5.0785	2.56539	0.417861	-0.180213	-7.80665
40.6125	632.058	5.10006	5.01177	1.06018	0.0941814	-7.80656
39.4494	632.839	5.10903	5.04823	0.808508	0.0801335	-7.80611
43.0386	631.875	5.03861	5.0215	1.1641	-0.210417	-7.80589
44.4121	633.872	5.0078	5.44568	2.8495	-0.254469	-7.80702
44.306	632.474	5.0126	5.2993	2.82809	-0.393809	-7.80517
41.8775	632.66	5.05719	5.28314	1.33238	-0.0612359	-7.80565
41.3493	625.699	5.1716	1.48192	0.599879	-0.148875	-7.8077
42.6094	626.301	5.09298	1.46093	0.482832	-0.11825	-7.8049
45.3513	630.295	5	5.0951	-2.429	-1.82774	-7.80556
44.088	629.69	5.02203	3.36054	1.70014	-0.46078	-7.80706
43.9817	628.295	5.02761	2.85963	1.33487	-0.414311	-7.80662
45.1362	627.502	5	2.66816	-2.58852	-0.60449	-7.80953
35.9527	635.181	5.03854	5.23586	1.301	-0.221376	-7.80206
37.1206	634.407	5.07993	5.67032	1.62699	0.144027	-7.80816
24.0816	629.103	4.64015	81.3667	12.5208	4.20065	-7.63007
23.7426	630.428	4.24922	29.8511	2.06242	-14.9386	-7.79989
24.7028	631.356	3.86174	2.05256	-12.1174	-13.4619	-7.40233
22.0439	632.241	4.13877	-21.0361	10.0143	-10.0692	-7.73413
27.593	634.905	3.97461	-12.6987	1.40611	-3.65994	-7.78764
28.6264	632.751	4.4461	-25.7222	12.0176	16.7422	-7.72161
28.4036	631.369	4.65517	15.8033	13.531	27.4148	-7.74436
26.4655	632.819	3.62341	-64.2263	-2.60193	-4.49829	-7.24321
27.59	633.51	3.95845	-41.6641	-2.26149	1.73772	-7.7228
26.123	631.474	3.9553	-5.51163	-9.85465	27.0398	-7.38982
27.1284	630.706	4.50834	23.7548	9.16825	32.1745	-7.76874
28.7565	635.583	4.31733	-8.14859	3.57556	-5.03206	-7.76939
31.1693	636.876	4.72069	9.91259	4.81679	-5.25519	-7.81335
0.5716	669.151	5	-0.112075	-7.22868	-11.4961	-5.135
16.7348	627.777	4.85266	16.6404	8.69837	-2.57402	-7.79922
17.1757	625.015	4.9531	20.7643	7.20675	-0.167157	-7.79076
18.9018	629.562	4.68489	9.24083	7.2464	-0.712504	-7.7994
19.9781	630.459	4.56437	9.73182	5.1153	-0.544424	-7.81576
21.3019	629.99	4.48042	12.8943	-5.3884	0.751315	-7.77317
21.566	628.625	4.62579	22.3156	0.405304	15.5165	-7.77387
18.0604	627.277	4.82969	17.6252	13.9197	-1.70091	-7.79769
18.2925	625.882	4.90244	21.0408	14.6296	-3.1976	-7.7819
19.1472	628.177	4.74024	14.2475	8.84528	2.63612	-7.78985
20.4804	627.708	4.73349	19.2053	15.345	9.30491	-7.79945
19.6272	625.382	4.93438	21.6773	28.8853	-2.08859	-7.7785
20.6966	626.319	4.87783	8.01485	17.392	10.5788	-7.75272
16.2565	622.766	5.02289	18.6146	4.55816	6.22313	-7.79816
45.626	649.2	5	11.2377	-4.53499	2.51556	-7.80915
46.7818	648.405	5	2.10992	1.01572	-1.30018	-7.80796
42.2353	992.271	5.01221	2.44268	2.40895	0.820338	-7.80717
35.8063	987.832	5.07744	2.74177	1.66814	2.58672	-7.80334
43.9958	983.722	4.99964	3.10403	1.80671	1.86899	-7.80923
42.7334	983.114	4.99842	3.28631	1.73921	1.76191	-7.80578
8.7311	762.205	4.99996	6.97701	2.40421	-1.04578	-7.80535
22.3726	712.663	5.44464	20.6335	-2.2363	11.3681	-7.78899
46.4186	983.539	5	3.12108	0.563228	1.13178	-7.80776
45.0462	981.542	5	2.16153	0.0588461	2.46357	-7.81061
45.1524	982.935	5	3.47603	0.260172	1.2288	-7.80528
39.1547	984.077	5.0089	2.99831	1.848	1.80694	-7.80678
40.3127	983.291	5.00048	3.09345	1.80406	1.88556	-7.80708
43.7812	980.934	4.99718	4.19821	2.49146	2.23277	-7.80202
42.6212	981.718	4.99571	4.03836	1.56897	1.97204	-7.80731
30.6998	969.256	5.32063	-7.85882	3.57372	9.09806	-7.78779
31.947	969.875	5.19424	-3.33543	5.25476	3.82749	-7.80523
32.056	971.273	5.18777	0.576283	5.41478	0.0792842	-7.81378
8.0559	955.026	5.00147	5.67237	1.79801	1.99217	-7.80652
26.1863	969.645	6.50803	-68.7869	-2.29776	-8.48109	-7.23276
25.8315	968.283	6.28533	-8.84471	-12.0994	23.8248	-7.39046
34.3539	969.697	5.06122	2.41149	3.13733	3.0473	-7.80815
33.0947	969.084	5.11752	0.555504	2.09075	4.9631	-7.79913
24.8373	0.974961	4.80245	19.5077	-2.1143	-15.0329	-7.77862
10.1883	7.10976	4.95453	3.89597	0.546568	-1.2583	-7.80809
8.8844	7.62275	4.96798	3.897	0.226251	-1.38281	-7.80596
14.9913	7.82488	4.93863	0.774662	3.68537	1.11623	-7.81599
12.1802	10.2224	4.9426	4.32078	-1.53026	0.0995349	-7.80264
12.5918	7.4648	4.93168	3.01513	1.199	-0.526689	-7.81087
13.6884	8.33392	4.92765	1.22004	0.220137	0.847895	-7.798
13.4871	9.71814	4.93008	5.30022	0.297438	1.5315	-7.81421
11.2878	7.97521	4.94251	3.15276	-0.0293458	-0.690969	-7.80414
11.079	9.35843	4.94852	4.38307	-0.0797779	-0.52081	-7.80969
11.9252	3.8322	4.96324	6.95245	0.265918	-1.65649	-7.80958
18.3334	2.66035	4.99631	34.5006	-5.41046	-1.09767	-7.77748
19.8173	7.1937	5.53327	-51.796	-2.99729	1.7559	-7.7095
21.0268	6.6633	5.82228	-77.9226	-1.96185	5.21608	-7.22506
13.2339	3.32481	4.96582	7.42331	-1.66445	-1.74646	-7.799
4.69644	2.78119	5	5.58796	-3.11082	0.23723	-7.80987
5.1125	0.0130828	5.00087	5.5441	2.18883	-1.13289	-7.80385
38.7086	51.7798	5.16336	2.41205	-1.37398	-2.085	-7.80671
19.7801	40.9199	4.11028	-7.61244	3.19062	7.10072	-7.76515
21.0132	40.3743	3.77418	-10.6461	6.87157	7.30716	-7.79743
23.229	44.7946	4.0744	93.9342	34.9521	-6.54173	-7.51938
19.6532	42.311	4.22325	11.5432	5.07763	8.24545	-7.81062
20.7931	43.145	4.12922	15.6332	3.1022	8.55407	-7.79285
21.8199	45.3876	4.11347	79.6227	18.4016	-19.0505	-7.59581
20.6508	44.5387	4.23235	46.8971	1.20214	-0.389317	-7.70492
30.5038	10.3806	4.8221	6.82543	6.41617	-3.79879	-7.81056
29.3441	11.1773	4.82568	6.9323	3.66796	-5.03175	-7.79518
44.7485	5.00067	4.99564	6.65891	3.559	-1.28255	-7.80734
42.2104	3.80151	4.98055	6.49254	2.84394	-1.63396	-7.80605
43.3695	3.0092	4.98983	6.75016	2.96492	-1.34987	-7.80448
44.6412	3.60252	4.99591	6.79912	3.65134	-1.40278	-7.80346
45.7983	2.8054	5	7.48707	-3.19667	-1.12823	-7.8081
46.8475	0.623525	5	3.93355	1.33429	-2.56038	-7.80761
45.6883	1.42003	5	7.00978	-3.41032	-1.88821	-7.80633
27.3038	0.796278	4.89263	10.2977	-4.62082	-10.1168	-7.78262
26.035	0.209014	4.8108	14.6084	1.04189	-14.7	-7.80029
31.2315	3.98531	4.88441	6.68959	2.01691	1.4268	-7.79783
3.93944	155.287	5	6.12468	-3.22558	3.01358	-7.80677
15.001	171.838	4.84439	4.03413	2.74554	1.6582	-7.80882
15.4305	169.083	4.82986	7.94329	-0.0725705	1.5283	-7.79978
13.2273	167.322	4.89955	8.04264	1.50945	2.83861	-7.80523
22.0053	166.577	4.32517	16.2602	-0.521066	19.0909	-7.77135
23.2905	166.057	4.11827	16.3144	4.8679	18.4294	-7.76973
23.0248	168.829	4.24615	78.6587	13.5774	-7.22212	-7.63545
25.0542	171.192	3.70727	-7.75083	-13.6034	25.0425	-7.39024
21.3338	170.695	4.22187	21.6164	12.0018	-19.152	-7.77331
23.6323	171.127	3.69476	-2.90182	-14.9454	-19.3028	-7.39648
22.674	170.196	4.06207	28.5513	2.68356	-23.26	-7.80104
27.3664	170.961	4.26171	17.3881	16.2199	24.4177	-7.75749
26.0744	170.343	4.0914	24.0005	6.33645	30.7257	-7.77973
26.6095	177.344	4.27678	17.5279	-1.8356	-11.1992	-7.78523
25.4088	172.552	3.47969	-69.152	-3.834	-7.27739	-7.23796
26.5631	173.182	3.81627	-44.6554	-1.56957	-2.18596	-7.72201
26.574	174.574	3.91917	-8.58534	3.28581	-11.3099	-7.7969
1.71241	260.226	5	-1.19274	-10.0866	6.58775	-7.69699
1.29923	262.991	5	-0.229844	-22.0477	-9.84286	-7.58577
0.205417	262.121	5	-0.101288	-6.59515	-11.6044	-5.13484
0.411938	260.738	5	-7.13911	0.453158	11.4363	-5.13481
7.1523	232.058	4.98925	3.16375	0.195404	-1.01205	-7.80734
4.12964	235.858	5	2.2831	-1.23976	-0.930539	-7.80951
4.74921	231.711	5	2.19758	-1.28145	-0.988924	-7.80943
6.0518	231.193	4.9976	3.30752	0.641371	-1.19143	-7.80396
1.33214	516.649	5	30.0662	-2.35195	-15.1264	-8.08456
0.0316691	517.162	5	17.5908	9.8796	-3.60778	-2.87956
13.5631	517.021	5.01575	6.71245	0.785478	-2.14455	-7.80973
12.6707	514.775	5.05388	6.08742	0.590237	-0.885172	-7.80649
12.4593	516.158	5.04015	5.81698	0.459958	-1.47062	-7.80393
11.5667	513.912	5.0663	5.40465	1.10746	-0.751371	-7.80683
10.2619	514.425	5.05529	5.06531	1.34169	-1.11247	-7.80631
15.3305	521.522	4.89231	1.01109	2.49275	0.128617	-7.79839
11.4225	523.069	4.99345	4.657	1.12918	-0.831445	-7.80503
12.7269	522.556	4.97544	5.06962	1.61503	-0.137445	-7.80989
5.71845	520.124	5.00427	4.11803	1.30556	-1.21205	-7.80919
7.022	519.608	5.01144	4.19058	1.35827	-1.28456	-7.80585
8.7467	516.325	5.0331	5.11309	0.795846	-1.34808	-7.80682
8.53505	517.709	5.02598	4.93492	0.795555	-1.28048	-7.80597
10.0512	515.81	5.04467	5.09935	1.19534	-1.4918	-7.80588
11.1543	516.673	5.04128	5.43663	0.847592	-1.63457	-7.80779
2.42596	517.519	5	2.97274	-0.074777	-1.08187	-7.80582
4.61937	519.257	5	4.496	0.782025	-0.68591	-7.80485
4.82099	517.873	5	2.09482	-0.464754	-2.83864	-7.81037
3.73156	517.005	5	1.2593	-2.70565	-2.19738	-7.80893
17.2636	566.231	4.96195	0.349597	3.84196	0.418661	-7.78381
17.0835	567.622	4.93994	12.3436	4.72009	2.42811	-7.81767
36.6097	473.243	5.10637	3.96613	2.63466	-1.66071	-7.80402
34.2833	474.827	5.12799	5.88118	1.57077	-1.51351	-7.80557
37.7671	472.451	5.09161	4.20095	2.77937	-1.22002	-7.80977
46.1413	424.12	5	8.2424	-2.68706	0.772391	-7.81263
46.2464	425.506	5	4.45662	-3.96118	2.55141	-7.80732
47.2982	423.326	5	2.32709	1.66275	-1.6755	-7.80653
48.5597	423.927	5	1.00605	-12.1698	3.95129	-7.69698
48.998	429.502	5	-1.86041	-4.5074	12.0332	-5.13412
7.19895	428.511	4.99596	11.0719	1.53624	1.2418	-7.80016
6.65195	415.712	5.00145	7.97911	3.7441	1.51513	-7.8035
5.33965	416.213	5.00073	8.3199	3.95072	1.99095	-7.80063
2.84848	432.796	5	6.13919	0.0312682	-2.1722	-7.80651
9.20415	431.627	4.99935	10.7354	2.5356	0.388209	-7.80591
8.30755	429.375	4.99391	11.1524	2.16278	1.18926	-7.80479
8.09655	430.762	4.99751	10.3242	2.03218	0.851558	-7.80272
9.62295	428.878	4.98868	11.2392	1.8242	1.30074	-7.803
10.5192	431.129	4.9936	10.9935	1.99201	0.457236	-7.80157
10.7325	429.742	4.98566	11.8524	2.15082	0.914939	-7.80435
7.67735	433.516	5.00694	9.50884	2.41203	0.18346	-7.8064
8.99045	433.014	5.0072	9.56901	2.41926	0.00268762	-7.80283
4.58826	404.792	5	6.4164	-9.1726	4.48538	-7.81039
4.80346	403.429	5	10.1069	-7.37924	6.35497	-7.79862
3.69962	402.54	5	7.72963	0.706972	5.86663	-7.79899
7.89445	382.698	4.92801	1.73947	0.57706	1.95282	-7.80726
7.69195	384.081	4.94568	1.57865	0.743505	1.98944	-7.80597
1.5105	400.801	5	1.84524	-12.4963	-3.06451	-7.69666
0.6232	398.549	5	-7.13823	-0.193823	11.5179	-5.13497
0.416678	399.93	5	-0.111412	-7.22849	-11.4955	-5.135
4.26149	390.616	5	2.59598	-0.69309	2.24404	-7.80374
6.7271	398.771	5.00249	5.64141	2.48575	2.71298	-7.80514
4.45853	471.193	5	7.93438	-3.52707	0.477326	-7.8092
5.76775	470.677	4.99805	9.11663	3.27862	-0.838472	-7.80064
6.87555	471.54	4.99421	8.73683	1.90061	-0.302863	-7.80524
6.6645	472.926	4.99391	6.79155	1.77287	-1.10122	-7.80173
3.83436	475.336	5	4.30753	-0.0671687	-1.68174	-7.81146
4.25726	472.568	5	7.5997	-4.17051	-0.141569	-7.80358
5.14135	474.822	4.99831	6.29065	2.3129	-1.56287	-7.80242
5.35695	473.437	4.99788	6.40521	2.41895	-1.28921	-7.80897
1.85325	472.213	5	-1.06261	-10.218	6.6283	-7.69699
2.94707	473.084	5	5.8292	0.597933	-2.04769	-7.80624
2.74055	474.466	5	0.149185	0.14798	-0.131177	-7.80737
1.44007	474.979	5	-0.230927	-22.0469	-9.84107	-7.58577
2.47295	468.067	5	0.262933	-0.571688	-7.2597E-05	-7.80789
0.346257	474.108	5	-0.10003	-6.59433	-11.6035	-5.13484
0.55278	472.726	5	-7.14015	0.453106	11.4367	-5.13481
6.15295	492.637	4.99953	3.81157	0.864	-0.321226	-7.80711
6.56655	489.874	4.99873	2.79566	0.895142	0.0824986	-7.80645
7.4572	492.126	4.99944	3.7887	0.611406	-0.301816	-7.80736
7.665	490.742	4.99855	3.17151	0.735075	0.00381663	-7.80668
1.41665	499.704	5	30.0809	-3.0214	-15.0143	-8.08462
1.62316	498.322	5	1.7474	-13.0291	-2.97756	-7.69698
0.116173	500.216	5	17.5972	9.87802	-3.5954	-2.8796
9.72095	501.633	5.03589	4.57942	0.839655	-0.768094	-7.80661
8.61915	500.768	5.02067	4.72803	0.895443	-0.827208	-7.80646
8.829	499.384	5.01589	4.23297	0.750032	-0.898888	-7.80732
10.1328	498.87	5.0219	3.96505	1.24359	-1.27162	-7.80638
11.234	499.734	5.03583	3.74926	0.595209	-1.10673	-7.80722
11.0249	501.118	5.04511	4.57807	0.875868	-0.779059	-7.80691
10.3437	497.486	5.01723	4.20621	1.28498	-1.2658	-7.80755
3.54334	493.663	5	1.16729	0.682788	0.836391	-7.80762
29.3214	488.554	5.19734	-21.2317	13.0179	2.71052	-7.77304
20.1252	424.806	4.86589	2.2714	10.3112	-0.741299	-7.80813
19.9416	426.203	4.84319	8.27898	12.0605	4.55432	-7.80924
18.8941	433.108	4.85038	18.4491	5.57735	-8.35396	-7.80932
16.488	440.532	5.14915	11.2579	-1.4455	3.46163	-7.80532
19.1154	439.55	5.08747	9.39728	-4.6836	14.8989	-7.7719
8.1865	471.035	4.98974	8.86619	1.20342	-0.450796	-7.80363
8.3992	469.649	4.99257	9.08981	1.30065	-0.191643	-7.80515
1.00347	502.469	5	-7.13813	-0.193575	11.5178	-5.13497
11.7738	512.527	5.08242	4.41715	1.0378	-0.642739	-7.80487
10.6138	503.881	5.06576	4.90798	0.943967	-0.968012	-7.80673
11.918	503.366	5.07896	5.03988	0.711013	-0.847431	-7.80678
11.5046	506.129	5.09891	4.67026	0.980782	-1.52076	-7.80875
10.4031	505.265	5.07391	4.44631	0.675097	-1.28933	-7.80606
10.8671	453.085	4.96979	4.35642	1.96664	1.44755	-7.80636
15.1863	448.797	5.08198	2.08647	1.98864	1.90995	-7.81084
15.3863	447.412	5.12009	-0.414885	1.76805	0.880124	-7.80237
16.6855	446.904	5.20195	-1.30699	1.48112	0.390886	-7.81014
5.23095	457.886	4.99774	5.07648	3.27295	1.22225	-7.8069
3.92507	458.397	5	5.82796	-3.1821	2.7676	-7.80801
0.247669	433.82	5	-0.111869	-7.2293	-11.4956	-5.135
4.10819	260.583	5	0.472784	-0.0221211	-0.712696	-7.80578
2.59971	262.478	5	0.0847466	0.19467	-0.0294439	-7.80716
2.80622	261.096	5	0.968506	0.219612	-0.257553	-7.80771
4.37486	266.983	5	-0.142251	-0.332096	-1.02478	-7.80629
3.07382	267.495	5	0.525213	-0.418989	0.018844	-7.80882
2.18653	265.243	5	1.68445	-12.3211	-3.08832	-7.69683
1.98001	266.625	5	-1.22168	-9.40741	6.48256	-7.6969
5.8257	257.299	5.00012	0.548068	-0.329281	-2.48453	-7.81133
7.12275	256.775	5.00078	0.61777	0.883841	-2.5844	-7.80562
6.71105	259.544	5.00812	1.23757	0.301666	-2.3949	-7.8075
5.61255	258.681	5.00157	1.44263	-0.213812	-2.35932	-7.80322
6.23235	254.53	4.99707	2.44679	0.890813	-2.68282	-7.80185
4.04428	252.802	5	1.75696	-0.63437	-1.79387	-7.8112
4.93034	255.048	5	-0.371944	1.72589	-3.93683	-7.8096
3.84123	254.184	5	-1.54844	-1.94424	-2.72288	-7.80852
5.5598	250.901	4.9959	1.99732	-0.320576	-2.2523	-7.81085
5.3461	252.282	4.99707	2.82497	-0.18508	-2.30217	-7.80188
6.44585	253.146	4.99454	2.80934	0.89499	-2.59594	-7.80603
7.7461	252.625	4.99057	2.79394	0.197805	-2.59338	-7.80578
6.85935	250.38	4.9894	2.12989	0.524916	-2.21189	-7.80553
7.9595	251.242	4.9869	2.63881	0.254172	-2.41096	-7.80724
25.9911	232.277	5.37636	72.7859	20.2335	12.6837	-7.6636
25.9322	229.506	4.83016	12.192	6.97432	-17.3358	-7.77483
27.2129	231.5	5.24457	42.7471	-1.3778	-7.53087	-7.71197
27.1707	230.112	5.06156	13.7086	-1.60181	-17.4756	-7.77383
24.6925	230.209	4.92398	25.4849	32.0174	-2.96367	-7.70931
24.6379	231.638	5.21417	91.0943	37.9166	-1.44864	-7.56099
23.8088	234.461	6.04868	-10.0835	-12.0124	-23.523	-7.39112
10.9334	214.962	4.92442	1.36552	-0.822933	-0.518775	-7.80648
12.0329	215.824	4.92673	1.65881	-0.800595	-0.731028	-7.80729
11.8264	217.207	4.95219	1.94864	-0.824239	-0.664045	-7.80697
10.525	217.719	4.96526	1.93324	-0.527488	-0.639532	-7.80754
2.70763	220.808	5	1.55106	-0.341836	-0.440186	-7.80763
8.1243	217.369	4.97613	1.79777	-0.192369	-0.483654	-7.80756
8.53415	214.608	4.95301	1.45179	-0.920235	-0.0341259	-7.80729
9.42555	216.856	4.96031	1.80855	-1.13929	-0.458043	-7.80718
9.6323	215.474	4.94394	1.69073	-1.0348	-0.143026	-7.80773
12.5727	228.604	5.04155	1.76185	-0.0909915	-1.01323	-7.80601
13.873	228.088	5.06713	1.92094	0.919146	-0.699808	-7.81035
14.0773	226.704	5.09973	0.290014	0.880483	-1.26456	-7.8045
12.9801	225.838	5.09168	1.07098	0.559471	-1.63875	-7.80754
4.89862	222.546	5	2.2236	0.150331	-1.16982	-7.80508
5.10645	221.164	4.99967	1.818	0.434891	-0.475553	-7.80833
10.1729	228.257	5.02747	1.88426	0.701502	-1.19332	-7.80635
9.0739	227.392	5.02653	2.03955	0.199712	-1.26497	-7.80749
11.4733	227.741	5.04655	1.80821	0.687126	-1.24616	-7.80827
11.6809	226.357	5.06597	1.29606	0.701216	-1.48965	-7.80618
10.7934	224.109	5.05575	1.69315	-0.00197994	-1.82782	-7.80826
9.6948	223.246	5.0357	1.65157	-0.130166	-1.71032	-7.80595
10.5827	225.492	5.05391	1.63029	0.179349	-1.54531	-7.80677
9.2826	226.01	5.03564	1.78254	0.0569209	-1.38607	-7.80749
9.0156	219.617	4.9946	2.32169	-0.147036	-0.864706	-7.80787
8.8066	220.999	5.00868	1.79115	-0.312948	-1.08746	-7.80581
7.91655	218.752	4.98813	1.87448	-0.245568	-0.558017	-7.80663
6.61515	219.265	4.99498	1.82411	-0.110386	-0.550458	-7.80793
6.4075	220.648	5.00003	1.69307	-0.0397	-0.803893	-7.80539
7.5055	221.514	5.00649	1.81269	0.115432	-0.919123	-7.8085
14.2289	217.555	4.96866	2.6211	-0.718674	-0.60396	-7.80871
13.8212	220.311	5.04156	3.69752	-1.04877	-1.46948	-7.80806
12.7194	219.45	5.0067	3.01784	-1.37718	-1.09719	-7.8062
12.9271	218.069	4.9731	2.41786	-1.35367	-0.818673	-7.807
43.2459	217.531	4.99041	4.45146	2.4586	0.289744	-7.8052
44.5125	218.132	4.99685	4.38469	2.12537	0.328012	-7.8074
45.6684	217.34	5	4.84224	-1.83209	-0.00539217	-7.8068
39.4428	215.726	4.95386	4.53549	2.99155	0.313812	-7.80661
37.2468	218.715	4.96082	3.78897	2.66717	-0.548855	-7.80518
38.4001	217.918	4.95841	3.80207	3.72803	-0.360097	-7.80778
37.0213	215.921	4.93062	3.54037	4.29023	0.216705	-7.8074
38.288	216.521	4.94563	3.85295	3.83913	0.0312229	-7.80575
47.9775	215.76	5	1.4293	-11.9177	3.86699	-7.69683
49.6772	221.935	5	-5.48368	-1.31594	-11.8265	-5.13499
48.4158	221.333	5	-0.344684	-10.5263	-5.76293	-7.69703
41.4923	226.094	5.03563	2.25277	2.13206	-0.871105	-7.8081
40.9986	235.257	5.00664	2.04439	1.63539	-1.80304	-7.80654
42.1506	234.46	5.00645	2.42218	1.12014	-1.59351	-7.80794
43.9113	225.897	5.00815	2.8876	1.89105	-0.651714	-7.80764
44.1331	228.683	5.00696	2.58998	1.79722	-1.25661	-7.80517
42.8665	228.088	5.01957	2.55191	1.71507	-1.14365	-7.80706
42.7578	226.692	5.02031	2.46084	1.80565	-0.984827	-7.80562
49.0731	229.694	5	-1.83332	-5.12568	11.9895	-5.13484
47.2638	222.125	5	2.25509	0.293877	1.0658	-7.80687
46.5501	228.491	5	1.46572	0.402939	0.466931	-7.8062
45.1768	226.496	5	2.52555	-0.847345	-0.431164	-7.80783
45.2863	227.888	5	2.96947	-0.407686	-0.781509	-7.80829
49.7868	223.329	5	-1.85013	-5.13558	12.0117	-5.13457
32.7533	223.304	5.1025	4.32206	3.0761	1.75377	-7.8162
31.4835	222.711	5.06624	4.65784	-2.1604	3.07548	-7.78913
35.2905	224.498	5.12386	-0.418425	2.92565	-0.112621	-7.80511
35.1715	223.103	5.08156	2.9847	2.9008	0.172964	-7.81088
36.3217	222.304	5.04686	2.61394	2.79722	-0.194336	-7.80472
36.2063	220.908	5.00681	3.91193	2.92309	-0.567341	-7.80668
33.9041	222.506	5.06773	3.1621	1.29014	0.432515	-7.80109
21.5724	217.228	5.45105	-11.4035	-1.69903	10.285	-7.75624
21.4436	218.611	5.31601	7.67132	0.403717	11.9055	-7.80427
19.2163	216.869	5.1408	-5.2609	-0.269981	2.27783	-7.78444
16.8317	216.519	4.99291	-0.535297	-0.358752	-0.50536	-7.80072
18.1279	216	5.04277	-1.46155	1.93415	-0.915526	-7.8132
19.0377	218.255	5.13173	4.70174	0.347846	4.2331	-7.81778
16.0117	222.035	5.1201	4.45688	-3.12944	-3.54543	-7.79798
14.7094	222.554	5.10849	4.23888	-0.64483	-2.9639	-7.81131
14.4899	223.934	5.12214	0.75466	-0.596443	-3.01924	-7.80286
19.9626	220.494	5.14669	17.3765	-8.43555	0.908182	-7.78872
18.6472	220.997	5.1309	12.5369	-4.7276	-1.74694	-7.8065
30.4936	224.897	5.11446	-13.382	3.68445	6.13152	-7.78572
30.331	223.505	5.06313	8.69663	3.95994	7.63927	-7.81648
10.6567	208.573	4.95221	0.446686	-0.755061	0.667702	-7.8084
11.7526	209.441	4.93932	0.573355	-1.34937	0.856374	-7.80586
13.0536	208.932	4.96208	0.597878	-1.50163	0.901616	-7.80847
15.6463	207.91	5.0981	-1.40917	-3.55445	2.48614	-7.79911
25.8013	195.716	4.21955	-12.5342	4.77075	-11.8589	-7.78828
27.0105	196.325	4.51654	-9.81222	0.871237	-10.925	-7.75668
19.8695	203.625	5.77943	-22.672	5.23759	-15.2721	-7.73681
24.2386	206.955	6.0296	-4.84025	1.45596	-0.22121	-7.76317
24.289	204.15	6.22025	-68.3065	-0.937373	-6.40478	-7.23746
23.1479	204.881	6.50767	-40.4087	-39.6548	5.89954	-7.23674
22.0675	204.009	6.40688	-69.9107	0.611367	6.9612	-7.22102
22.522	202.703	6.0526	-4.90261	-12.4754	-17.895	-7.39694
23.9357	202.796	5.94153	-10.8686	-9.17915	25.7354	-7.39246
30.66	212.92	5.11105	12.1882	8.05072	9.55536	-7.80888
13.637	197.034	5.20124	3.30107	-2.2412	2.51417	-7.80247
13.4274	198.414	5.19537	4.10097	-2.60601	1.44166	-7.80693
2.17244	208.01	5	1.69563	-12.3246	-3.08625	-7.69687
2.58562	205.245	5	0.0581058	0.210437	-0.0366105	-7.80708
1.28515	205.758	5	-0.231111	-22.0477	-9.84107	-7.58577
1.07863	207.139	5	5.68695	-28.0193	-15.3748	-4.98339
3.47291	207.497	5	0.179334	-0.392552	0.0918247	-7.80797
3.67944	206.116	5	0.664001	-0.311218	-0.234587	-7.80695
5.8674	207.856	4.99229	-0.0828195	0.166856	0.226565	-7.80796
6.9611	208.726	4.97923	-0.0262696	-0.64903	0.30891	-7.80725
8.2616	208.215	4.96938	-0.0213778	-0.00898026	0.263279	-7.80777
6.0736	206.473	4.99482	-0.446615	0.184369	0.205597	-7.80673
8.4668	206.832	4.98057	-0.526195	-0.0666118	0.141284	-7.80673
7.3738	205.962	4.99174	-0.584899	0.158281	0.0839535	-7.80766
6.1363	214.254	4.98642	1.16	0.0353473	-0.281076	-7.80618
7.2331	215.121	4.9739	1.22154	-0.224498	-0.260102	-7.80731
7.02625	216.503	4.98142	1.5042	-0.134344	-0.393118	-7.80646
6.69455	202.327	5.01175	0.466057	-0.390528	0.13144	-7.80816
5.60025	201.456	5.00581	0.725384	0.409779	-0.111227	-7.80665
7.99585	201.816	5.02885	0.263693	-0.535774	-0.197891	-7.80637
8.206	200.435	5.04411	1.38241	-0.311061	-0.0369495	-7.80865
24.3931	237.981	6.3981	-21.1493	-14.0847	-2.31659	-7.72993
23.1741	238.582	6.12028	-8.05144	2.69982	10.1255	-7.76646
22.0726	237.74	5.92203	-13.2808	4.58317	9.9598	-7.79256
24.4352	236.617	6.58151	-41.5038	-36.2479	-1.95066	-7.24531
22.1777	236.349	5.96739	-46.0258	-1.74952	-0.300655	-7.71281
23.3526	235.782	6.33992	-71.056	0.720923	4.36921	-7.22711
18.511	237.94	5.13078	-5.39571	2.49118	2.92903	-7.78304
17.037	239.842	5.0525	4.19915	-1.14499	2.59363	-7.79567
18.3368	239.329	5.15035	5.67718	3.47928	4.98958	-7.81608
15.9355	238.979	4.96841	4.02746	1.93794	1.30352	-7.81366
17.4253	237.07	4.99728	-1.63359	4.35154	-0.193305	-7.81296
16.13	237.593	4.9425	-0.712217	1.66591	0.133474	-7.79789
9.2059	242.946	4.95144	3.8362	0.0498722	-1.88853	-7.80727
7.6931	244.848	4.97119	2.82719	0.743944	-2.3642	-7.80767
7.4805	246.232	4.97621	3.0908	0.825471	-2.2885	-7.80641
10.0951	245.192	4.95515	3.02936	0.725483	-2.1933	-7.80729
8.99425	244.329	4.95791	3.08871	-0.00873402	-2.08863	-7.80649
4.19431	243.638	5	2.16478	-0.479524	-0.874769	-7.80496
2.89073	244.152	5	2.10688	-0.382407	-0.546808	-7.80799
3.92663	237.239	5	2.48532	-1.10513	-0.0879319	-7.80667
12.3659	229.987	5.00699	3.1287	0.0948006	-1.11223	-7.8074
13.4674	230.85	4.98575	3.47007	0.133437	-1.18837	-7.80682
3.67009	288.074	5	1.32356	0.613984	1.02882	-7.80725
3.87661	286.692	5	5.42899	0.271467	-2.42793	-7.81348
4.50087	282.549	5	7.56328	-3.21028	-0.118018	-7.80997
4.29901	283.924	5	6.77413	-4.69095	-1.17562	-7.80275
0.59503	284.082	5	-7.13993	0.453098	11.4365	-5.13481
0.388509	285.464	5	-0.100627	-6.59465	-11.6038	-5.13484
19.0764	250.737	5.46304	5.79701	-3.13897	7.77887	-7.78625
8.3698	248.477	4.97709	3.24839	0.0300788	-1.89342	-7.80681
8.5814	247.094	4.97077	3.11635	0.0304675	-2.08656	-7.80664
10.9831	247.438	4.96934	2.59816	-0.11717	-1.91314	-7.80629
9.8826	246.575	4.96286	3.01361	0.717543	-2.25101	-7.80699
0.120912	279.066	5	-0.342439	-6.81123	-11.8369	-5.13439
17.8121	266.755	5.03545	-11.536	-2.64597	-10.202	-7.78037
12.6487	268.869	5.16474	-1.97346	0.130943	-1.39669	-7.80374
11.5521	268.005	5.16184	-0.885781	0.318413	-2.04315	-7.80818
5.2626	269.231	5.01071	0.422132	0.324054	-1.40162	-7.80535
4.85288	272.004	5	3.6063	-2.0712	0.839629	-7.80683
2.8673	268.877	5	1.11106	0.299608	1.00072	-7.80502
1.56683	269.389	5	1.72992	-12.3695	-3.07278	-7.69679
3.96357	269.749	5	1.77415	-0.457861	0.656548	-7.80983
3.75617	271.129	5	2.7288	0.0307493	1.24449	-7.80508
0.679535	267.138	5	-7.13825	-0.193896	11.518	-5.13497
0.473013	268.519	5	-0.111707	-7.2286	-11.4956	-5.135
0.186593	65.6954	5	17.5806	9.87368	-3.59235	-2.87964
0.59977	62.9309	5	-0.156881	-6.8939	-11.6056	-5.13476
2.31329	59.6542	5	1.73927	-12.7085	-3.03338	-7.69677
2.10676	61.0364	5	-1.16231	-9.80928	6.54449	-7.69674
0.80629	61.5487	5	-7.15953	0.179805	11.4772	-5.13477
3.8892	65.5378	5	6.21074	-3.51285	0.441428	-7.80743
2.58088	66.0532	5	4.46415	0.334263	-1.74315	-7.80465
1.48706	65.1831	5	30.0873	-2.69902	-15.0775	-8.0846
1.69358	63.8009	5	1.73051	-12.7496	-3.05228	-7.69671
5.88285	68.6601	4.99493	10.1888	4.62115	0.0337538	-7.80474
4.98231	66.4151	5	8.96954	-4.3916	-0.257567	-7.80877
4.77866	67.7891	5	9.97582	-3.62562	1.53781	-7.8059
4.24092	54.9922	5	7.4594	-2.63675	0.871421	-7.80508
9.62485	43.7434	4.92685	7.85758	2.79586	-2.57585	-7.80575
19.0119	63.5565	4.98533	15.6307	9.56245	12.7331	-7.79231
17.7018	64.0683	5.01826	11.8225	6.12971	8.93694	-7.78507
4.09345	64.1631	5	8.36396	-2.98184	1.11548	-7.81001
3.20058	61.9065	5	4.55381	0.154168	-1.46886	-7.80811
2.99405	63.2886	5	3.00922	1.29572	2.21903	-7.8078
17.2253	34.1679	4.69049	17.0546	-1.55635	-5.06213	-7.80403
17.8364	37.7829	4.54075	-6.00662	3.88616	-13.0935	-7.78359
18.1009	36.4022	4.55691	16.1624	4.01063	-14.2435	-7.80082
16.9973	35.5495	4.68543	11.9574	-2.92099	-9.47876	-7.77924
15.6939	36.0847	4.77201	11.3491	2.30822	-8.10971	-7.80825
13.0608	37.1458	4.88283	5.4056	1.77378	-5.30702	-7.80046
17.4314	40.5837	4.51397	-2.59076	4.80743	-0.190184	-7.78505
14.8485	41.6406	4.73608	6.87528	4.17618	-1.46448	-7.81266
15.6732	19.1953	4.78183	-7.18417	-2.40352	-0.358078	-7.78763
13.0963	20.2314	4.9876	-0.219076	-0.371062	-0.78404	-7.81179
14.0009	22.4753	4.98779	3.40382	-2.68709	-0.151453	-7.80852
15.4869	20.5768	4.83676	-0.496688	-2.02859	1.32461	-7.81485
14.1944	21.0934	4.94642	-0.674459	-2.69786	0.388164	-7.79885
14.5035	27.4639	5.01235	4.21642	0.448514	-4.43554	-7.80902
16.0974	16.4212	4.77612	-7.55475	-5.23848	-10.7513	-7.78267
16.3658	15.0501	4.80143	14.065	-4.62669	-10.5203	-7.80758
15.2652	14.194	4.8893	8.91036	-9.55629	-5.93401	-7.78294
37.8306	597.282	4.96197	8.12775	2.21284	-3.11254	-7.80353
18.4146	599.643	5.40173	14.7282	4.47683	10.6107	-7.80782
17.1131	600.153	5.26109	11.428	-1.13583	6.24791	-7.78863
20.5865	602.719	5.43792	84.9754	15.0351	-18.0325	-7.56835
19.561	600.479	5.45153	19.4319	1.36204	11.1261	-7.78755
19.4106	601.871	5.35984	50.1806	-1.17972	0.450673	-7.69813
18.7386	564.301	4.9229	-18.4621	9.9302	-9.59747	-7.77784
26.6041	547.7	5.0769	26.7444	-6.28654	2.17418	-7.78248
22.9506	541.797	3.54299	-41.7656	-37.142	-1.39939	-7.24683
23.5286	558.389	5.19449	40.4486	36.5971	-5.61746	-7.66467
28.9583	578.457	5.12543	12.5215	5.29949	-10.5817	-7.80894
28.8817	577.057	5.07233	1.00264	4.81653	-9.50102	-7.77819
27.6211	576.467	4.95241	-0.575732	12.8626	-10.1937	-7.80379
26.4871	577.299	4.86212	-5.06011	-0.483088	-19.916	-7.74547
19.5854	526.362	4.49608	31.1946	-3.20182	-2.21661	-7.78385
19.327	527.737	4.46829	15.5333	-7.06315	-12.2274	-7.75949
24.8399	526.802	4.20698	72.7332	16.9617	12.9574	-7.65366
26.7962	533.018	4.3211	-7.33673	0.0215313	-13.6608	-7.757
29.2313	534.192	4.80011	7.26986	3.70232	-7.08735	-7.81347
27.914	532.195	4.52602	-4.70771	9.65147	-6.58353	-7.80601
29.1546	532.794	4.74679	-3.09991	3.32702	-5.87618	-7.78234
25.6078	532.419	3.93342	-9.78181	3.74209	-14.3953	-7.78749
28.1578	536.382	4.76752	18.3727	-4.2567	-3.33022	-7.7929
28.075	534.99	4.69579	8.30846	-3.50589	-10.0805	-7.78292
26.8226	534.408	4.46932	11.1945	1.90169	-13.8197	-7.80392
26.9807	537.158	4.65622	29.8203	-3.26392	2.02435	-7.78637
31.6509	533.981	4.98745	5.29237	2.71136	-3.418	-7.81177
30.4966	534.779	4.92849	5.58246	-0.210589	-4.65343	-7.79484
42.1463	559.06	4.99102	8.99693	2.79618	-4.06868	-7.80353
43.3075	558.266	4.99401	9.45188	2.5912	-3.64569	-7.80373
44.0318	551.89	4.99576	5.17912	3.81192	-3.70615	-7.81023
42.8763	552.688	4.98901	5.62577	2.93677	-3.74453	-7.802
30.8241	416.846	4.70392	4.79201	11.4037	-6.91717	-7.77669
29.5761	416.217	4.58851	0.552545	20.9478	-5.65569	-7.8029
30.8864	418.257	4.69727	23.693	13.1719	-10.0082	-7.80236
28.4252	417.019	4.43168	-2.86914	15.5581	-12.959	-7.75769
29.698	419.047	4.61214	23.8803	8.13854	-13.9461	-7.76788
28.4295	418.435	4.49922	24.5204	19.4742	-16.3683	-7.78175
27.2262	416.358	4.17858	-10.5957	7.94409	-6.99142	-7.80009
27.2247	414.959	4.10628	-46.2382	3.9886	0.710874	-7.7292
20.3689	414.262	4.58569	-15.7074	6.62941	-7.02187	-7.78589
20.1713	415.65	4.6241	-4.30775	8.17936	2.55892	-7.8114
21.6419	413.747	4.3617	-20.4677	9.66207	-17.6607	-7.74221
22.6208	414.668	4.0618	-46.4475	-5.92761	2.06463	-7.72082
18.3136	420.309	4.9352	9.06636	0.905442	4.25921	-7.80469
22.4949	416.047	4.18998	-8.66023	-0.915854	13.916	-7.80181
21.2376	416.547	4.49105	-9.18023	-4.0021	10.9636	-7.76158
42.438	423.687	4.98466	9.10994	2.93623	3.45192	-7.80211
45.0986	426.301	5	5.523	-1.4249	3.45495	-7.81128
43.8277	425.692	4.99627	9.01242	4.33413	3.04717	-7.79609
44.7539	422.112	4.99584	9.06594	3.56669	2.46262	-7.80929
37.204	419.866	4.91015	14.2344	0.716892	3.32675	-7.79873
34.3219	414.473	4.89407	9.69497	6.04257	1.5313	-7.80441
33.3498	418.062	4.81948	18.9086	6.48124	-2.89471	-7.80729
33.2547	416.658	4.83523	10.4743	5.99718	-2.09168	-7.79101
34.6328	418.65	4.85457	16.3429	0.708374	0.321295	-7.79502
34.4252	415.877	4.88065	12.3625	6.35052	-0.372863	-7.80803
39.3204	415.518	4.96065	12.109	1.24646	0.813293	-7.80386
39.5358	418.289	4.95104	12.8244	1.52718	1.91128	-7.80322
40.7069	417.512	4.96651	12.1996	1.42746	1.51737	-7.80257
40.5953	416.114	4.97015	11.7545	1.32106	1.15007	-7.80396
43.8805	410.979	4.99917	8.82718	2.76422	0.232403	-7.80424
29.7743	420.456	4.59769	51.9894	7.35648	-5.04965	-7.70747
27.1744	420.65	4.47904	102.269	35.6038	-7.57353	-7.45219
28.83	422.649	4.28708	29.5617	9.15498	23.938	-7.80385
28.5602	421.26	4.47249	79.5285	18.1074	8.62189	-7.62889
21.4175	424.268	4.79661	-3.84801	7.25983	-9.17123	-7.78316
22.0173	429.356	4.668	21.474	11.2076	16.1366	-7.76752
21.8484	430.758	4.67305	50.2029	9.46502	9.27417	-7.70695
20.9531	434.885	4.59375	-25.0957	14.9762	-16.0975	-7.73503
21.2924	433.506	4.59037	23.8272	15.5821	-19.4866	-7.7655
6.38335	409.31	4.9982	7.45702	1.98388	2.2781	-7.8052
13.3482	404.026	4.97861	7.64184	2.54456	3.5267	-7.80761
13.5459	402.639	4.98203	5.52724	2.26793	3.25904	-7.80336
14.8534	402.136	4.96715	5.03033	3.46111	2.87598	-7.80784
14.4531	404.895	4.9616	7.63848	1.91208	3.95026	-7.79999
10.9342	403.658	4.99432	6.96286	1.79041	2.99824	-7.80715
10.5234	406.411	4.98863	8.00266	1.53324	2.4342	-7.80493
11.8352	405.913	4.98285	8.39488	1.51812	2.88152	-7.80631
12.0378	404.527	4.98646	7.30707	1.56075	3.02763	-7.80322
12.3785	418.708	5.00255	8.12814	3.45382	2.39543	-7.80743
11.9685	421.468	5.00163	8.77041	3.18359	2.70377	-7.80306
10.8633	420.599	5.00391	8.74668	3.58919	2.4639	-7.80645
11.0673	419.21	5.00481	8.28662	3.70162	2.40049	-7.80304
12.5817	417.321	4.99822	7.14643	3.39648	2.05628	-7.80377
14.0959	415.427	4.97575	5.30561	4.18941	0.55275	-7.80589
13.8909	416.815	4.98661	6.63036	4.64002	1.56685	-7.80741
12.9961	414.556	4.98304	6.53588	3.04723	0.255828	-7.80518
11.4798	416.448	4.99968	7.70907	3.70842	1.68145	-7.80603
11.6867	415.061	4.99407	7.18262	3.39927	1.01383	-7.80679
15.6182	413.532	4.93344	6.08702	3.75457	-1.89398	-7.81099
15.4024	414.918	4.94839	4.41363	4.07537	-0.356733	-7.80624
18.0141	413.893	4.83376	0.1866	4.80742	-4.27559	-7.80985
16.9243	413.019	4.8872	4.24351	1.4779	-4.6947	-7.79541
17.7981	415.279	4.85535	0.977807	5.61227	-0.627191	-7.80955
16.4969	415.793	4.92328	2.39712	3.95622	0.638238	-7.80242
12.1055	412.302	4.98053	7.8287	2.15392	0.188023	-7.80234
19.583	411.998	4.72776	20.3473	1.70845	-9.81057	-7.80694
18.4794	411.134	4.81387	15.5457	-4.46561	-5.1625	-7.7802
26.5042	406.495	3.99968	7.21778	7.99971	-3.53152	-7.78701
24.0027	407.726	4.38515	26.3923	15.5837	16.9114	-7.76945
25.3194	405.753	3.89205	-2.6177	2.46319	5.26599	-7.77935
24.0823	406.327	4.19494	4.5703	10.8366	12.7222	-7.7737
28.9472	407.824	4.43322	21.0175	-1.73932	-7.09805	-7.79314
32.739	409.687	4.83702	15.6862	-2.36059	0.118405	-7.79474
31.5484	410.44	4.79731	22.0994	0.832517	4.64898	-7.80392
30.2035	408.433	4.61668	17.0984	-5.2544	-3.79158	-7.79041
30.2717	409.826	4.70844	26.3795	-5.60246	4.74124	-7.77057
34.112	411.691	4.90226	13.0465	0.675933	2.27438	-7.79342
34.0094	410.293	4.89355	13.961	0.725999	0.340383	-7.80585
32.4418	404.119	4.59046	-6.61557	1.81321	-2.30525	-7.78558
33.8334	407.522	4.84214	8.10808	0.680469	-3.44727	-7.811
33.7569	406.126	4.80206	2.21217	0.535794	-3.91925	-7.79355
