21	5
14.1994	285.402	5.89431	-2.56014	0.190921	0.911013	-7.80506
15.5216	284.991	6.07214	-2.94416	0.849505	0.606437	-7.80558
42.8177	455.557	5.02741	3.88976	-0.303773	0.9351	-7.80274
43.2122	458.32	5.03774	2.9522	0.980133	1.41727	-7.80717
41.9137	457.797	5.0681	3.1298	-0.147198	1.39726	-7.80528
41.7104	456.413	5.05766	4.46978	0.248402	1.25723	-7.80815
44.3199	457.466	5.01299	3.53236	1.59741	1.74524	-7.80402
44.1176	456.08	5.01097	3.19831	1.68066	1.66736	-7.80997
17.2153	423.727	4.9914	9.90352	1.89002	-0.390197	-7.79763
17.9167	426.039	4.98198	10.7825	1.67137	-4.1604	-7.81509
16.8862	425.09	4.98666	8.40368	0.610163	-2.78699	-7.79995
18.5636	423.322	4.99553	12.0786	7.52905	2.43308	-7.81099
19.6018	424.277	4.99274	16.6372	-2.04692	7.06861	-7.78742
19.2648	425.632	4.98473	12.2722	-5.87662	-4.3022	-7.78479
16.3486	437.902	4.77059	4.47429	0.926806	-1.23896	-7.80104
16.6745	436.541	4.80043	5.48955	1.58879	0.881231	-7.79965
37.5008	418.193	5.04167	10.09	2.7327	0.685118	-7.80236
39.0078	420.102	5.02489	8.94465	2.63573	0.677239	-7.80449
38.8075	418.714	5.031	9.86039	2.76676	0.827865	-7.80542
36.386	419.049	5.04521	10.338	3.54686	1.1004	-7.80555
28.6172	406.679	5.43842	-9.2663	6.131	1.35142	-7.79947
19.3923	402.88	6.3039	7.68114	-4.7937	12.7747	-7.78193
18.3736	401.915	6.18456	4.32651	5.16848	7.37033	-7.80856
19.9843	400.137	6.21263	-18.7066	9.13496	-9.54684	-7.77877
18.6588	400.544	6.1533	-12.892	3.44122	0.56485	-7.79079
21.4476	404.781	6.57017	20.5381	-8.64304	-12.7376	-7.84452
20.0894	405.179	6.43125	14.5698	3.64184	-10.9833	-7.79861
23.2161	402.986	6.35609	64.7983	-3.62992	8.5803	-7.69561
21.8327	403.438	6.4448	56.7002	3.65185	11.4263	-7.75682
23.2922	401.591	6.35399	-30.6382	-35.6438	3.84282	-7.2472
20.7386	402.494	6.38779	21.0469	-1.16506	24.2093	-7.73735
22.2274	400.697	6.3681	-76.2133	0.188029	12.0164	-7.29288
20.948	401.12	6.35995	-46.2541	-6.44675	12.7851	-7.73877
35.2358	401.562	4.89844	0.691759	4.14155	-0.256639	-7.80855
35.0498	400.174	4.86312	-0.24447	4.18753	0.479328	-7.80538
32.8398	401.883	4.97423	0.611885	4.4307	-0.275696	-7.8073
34.1315	402.422	4.9427	0.797547	3.61071	-0.32291	-7.80472
33.3863	406.058	5.04552	2.46118	4.86077	-1.65601	-7.80894
34.6814	406.591	5.01698	3.09151	3.54532	-1.95385	-7.80268
33.208	404.668	5.02933	1.38433	4.26144	-0.783893	-7.80582
34.3141	403.81	4.97226	1.48313	3.68787	-0.750885	-7.80808
38.0114	404.014	4.942	2.72129	3.04007	-0.65969	-7.80457
36.715	403.483	4.93198	2.56475	3.7703	-0.659545	-7.80845
35.6086	404.343	4.95855	1.92987	4.25167	-1.07716	-7.80416
38.197	405.402	4.96409	3.96641	3.09916	-1.06429	-7.80998
37.0883	406.26	4.9802	3.47686	3.52703	-1.43256	-7.80364
35.7904	405.733	4.98269	3.34161	4.45642	-1.5657	-7.80929
28.9993	400.258	5.22044	-8.44257	3.59748	3.77902	-7.80091
30.276	400.808	5.11106	-5.84109	3.73128	1.07911	-7.80495
28.0691	402.502	5.49005	5.56978	6.55166	-4.06809	-7.80634
26.9709	403.354	5.72562	11.4657	-2.25014	-5.77379	-7.79347
27.1646	404.734	5.72804	2.69588	-3.91851	5.0986	-7.7816
28.4303	405.291	5.4912	3.12321	5.33107	2.77391	-7.81569
37.6344	401.235	4.89063	1.39255	3.72765	0.190671	-7.80871
38.9297	401.766	4.91348	1.58951	3.14963	-0.0165159	-7.80543
45.5454	448.825	5	8.34896	-4.98424	-0.390233	-7.80446
44.4404	449.689	5.00031	5.96526	1.97069	-0.236716	-7.80804
44.6386	451.075	5.00101	5.66131	1.92218	-0.0759918	-7.8036
45.9391	451.602	5	6.26342	-4.11544	-2.15057	-7.8099
48.5367	452.643	5	30.2168	-3.06951	15.1306	-8.08447
49.8326	453.168	5	17.6485	9.98982	3.74531	-2.87903
47.7592	447.108	5	1.44717	-12.6949	3.24092	-7.69625
48.8607	446.248	5	5.21721	-27.2424	15.9528	-4.98308
43.2008	432.225	4.99389	6.36701	3.27876	-0.530423	-7.80335
42.0928	433.087	4.98835	6.18682	3.4408	-0.678242	-7.80647
40.5921	431.18	4.98463	6.45118	3.52327	-0.537048	-7.80636
40.7891	432.568	4.98236	5.86353	3.36045	-0.391319	-7.80636
48.9255	429.304	5	5.13801	-27.1194	15.9904	-4.98352
45.9338	425.483	5	8.98346	-6.57242	0.443379	-7.80521
45.7421	424.111	5	9.66158	-4.91606	-2.25446	-7.80658
42.4113	426.684	4.99916	7.38184	3.42835	0.4225	-7.80657
43.5206	425.824	5.00043	6.68422	2.63506	-0.254139	-7.8035
46.7873	440.187	5	4.58257	1.36017	-3.27594	-7.80686
45.6774	441.055	5	7.56845	-3.60242	-3.22393	-7.80528
44.1816	439.144	4.99672	6.43573	3.49417	-1.42923	-7.80451
44.3753	440.532	4.99724	6.42348	3.56862	-1.5087	-7.80712
49.1198	378.469	5	-0.507805	-6.5163	11.879	-5.13473
48.0184	379.329	5	1.28562	-12.5648	3.27541	-7.69593
46.7225	378.806	5	0.312412	0.796936	-0.487731	-7.80703
46.5282	377.422	5	8.03417	1.05979	2.72261	-7.80301
49.5086	381.236	5	-7.14595	0.172268	-11.6083	-5.13406
49.703	382.621	5	-0.509292	-6.56705	11.8262	-5.13421
38.0885	387.021	4.82144	1.81782	2.47771	2.74747	-7.807
36.7951	386.484	4.78015	1.70118	2.88061	2.90856	-7.80565
37.6974	384.242	4.84525	2.67766	1.38603	2.97104	-7.80611
36.592	385.098	4.79359	2.4895	2.74903	3.12431	-7.80672
41.3936	384.459	4.94358	3.3517	2.02622	2.96114	-7.80524
41.5946	385.846	4.93971	2.43651	1.7544	2.54256	-7.80705
40.4876	386.699	4.90414	2.16507	1.90699	2.53679	-7.80757
39.1935	386.165	4.86876	1.95894	2.31077	2.69856	-7.80666
40.0986	383.923	4.91778	3.31097	1.33866	2.80588	-7.80635
38.9918	384.778	4.87806	2.96021	2.56688	2.78958	-7.80604
44.3798	388.299	4.98743	1.37432	0.777622	2.40568	-7.80998
43.086	387.765	4.96563	1.5703	1.80582	2.14945	-7.80429
42.8897	386.378	4.96611	2.75584	1.4492	2.08398	-7.8071
43.9993	385.526	4.98672	3.97239	2.05347	2.86817	-7.80127
37.1032	380.079	4.89994	3.43913	1.51627	3.11423	-7.80603
39.3033	378.377	4.96118	4.2929	1.27495	3.07344	-7.80664
36.8987	378.694	4.91967	4.02239	1.41439	3.37227	-7.80655
38.0072	377.841	4.95014	4.11326	2.13655	3.47388	-7.8046
38.6011	382.002	4.90414	3.24457	2.55166	3.00688	-7.80618
38.3986	380.615	4.91921	3.36609	2.38906	3.29225	-7.80646
39.5067	379.762	4.94967	3.72226	1.05359	3.22148	-7.80632
40.8023	380.298	4.96367	3.70815	1.90904	3.40451	-7.80691
41.0037	381.685	4.95599	3.09331	2.02129	3.26193	-7.80573
39.8961	382.538	4.92722	3.02626	1.14089	3.07203	-7.80656
42.9402	369.428	5.00147	7.71567	1.41033	2.8265	-7.80493
44.0574	368.58	5.00041	8.56679	2.26159	3.5049	-7.79669
45.3583	369.121	5	7.92813	-4.7912	0.598386	-7.80967
45.5424	370.495	5	8.03285	-6.57971	2.68604	-7.80149
48.0832	336.274	5	-0.55705	-10.5636	-6.6925	-7.69757
46.9817	337.136	5	6.60706	0.98424	2.25055	-7.80322
43.7182	322.78	4.99497	9.69018	2.65056	-1.54976	-7.80516
43.9145	324.169	4.99562	10.2183	2.90535	-1.51234	-7.80165
44.8308	321.921	4.9981	9.44926	4.69081	-1.26878	-7.80472
46.1394	322.436	5	5.77126	-0.871032	0.817875	-7.80912
48.4072	329.879	5	-1.30615	-9.9672	-6.43132	-7.69599
49.703	330.401	5	-7.17395	0.239858	-11.6444	-5.1345
47.8888	334.892	5	2.08758	-13.2101	2.93745	-7.69755
48.9903	334.03	5	5.66078	-28.0671	15.3985	-4.98387
48.7959	332.648	5	-0.0206514	-22.1315	9.83359	-7.58632
44.8894	331.069	4.99933	6.22673	0.667045	-0.00987475	-7.80927
45.9971	330.21	5	9.76011	-6.57682	0.234994	-7.804
47.3057	330.738	5	7.36977	0.684515	3.00544	-7.80589
47.5001	332.123	5	0.250815	-0.0629467	0.458391	-7.80728
45.1665	341.618	5	-1.08836	1.17833	2.68414	-7.80911
46.2624	340.76	5	1.39418	-3.28571	3.00644	-7.80826
45.3562	343.006	5	2.43331	2.31889	1.79801	-7.80471
46.6578	343.531	5	2.84275	0.376039	1.27214	-7.8058
47.7592	342.672	5	-1.41397	-9.79946	-6.2668	-7.69661
47.5648	341.287	5	3.62675	0.524238	1.71372	-7.80499
39.3614	335.377	5.12766	5.75616	0.0461744	0.982385	-7.80325
40.6651	335.892	5.09714	5.38897	0.251423	1.07727	-7.80898
43.5849	330.552	4.99968	6.74933	0.645797	-0.492585	-7.80134
43.3883	329.166	4.99623	8.31068	0.719076	-1.2605	-7.80423
42.0804	328.657	4.99243	8.62072	1.24661	-1.22911	-7.80332
40.9676	329.512	4.99568	9.25631	-0.491747	-0.977428	-7.80678
33.279	327.844	4.96866	15.2443	0.408419	-5.97174	-7.80266
23.0568	306.594	4.93665	-25.5378	-35.5906	-0.835761	-7.2611
21.9781	305.717	4.92045	-67.2783	-0.29109	7.85158	-7.33473
24.2068	305.811	4.93442	-66.099	-2.01455	-15.7688	-7.33223
23.8629	304.434	4.91853	-1.51374	-14.6897	19.9056	-7.44436
22.4412	304.375	4.90933	0.790569	-19.9673	-21.5077	-7.43902
19.1292	307.935	4.94638	17.5254	-1.84773	7.25715	-7.78681
20.4846	307.532	4.94257	30.5904	-0.491266	17.3662	-7.74684
20.698	306.155	4.92337	-38.9568	-4.19415	8.03916	-7.76608
19.7166	305.176	4.91181	-11.0777	11.6381	-14.3022	-7.78526
18.3868	305.601	4.9171	-5.52579	7.22888	-4.45638	-7.79365
18.0917	306.976	4.93298	13.0499	8.79085	2.38108	-7.80995
23.2802	301.553	4.88767	80.4964	0.364609	1.95026	-7.64029
24.6373	302.145	4.9068	69.9099	7.1497	-0.529392	-7.71781
23.3419	300.151	4.86687	-22.5121	-29.2483	-1.02957	-7.27166
25.8252	301.309	4.9124	35.8503	0.560538	-15.7102	-7.74191
25.7343	299.914	4.89635	-33.6522	-2.33533	-11.5548	-7.77299
24.4951	299.364	4.87072	-60.7398	3.20281	-14.6411	-7.34512
25.2036	297.075	4.84711	33.6668	8.53128	25.5395	-7.81109
24.1508	297.982	4.85446	2.01961	-8.90291	18.8162	-7.44685
22.7242	297.923	4.84771	4.69097	-12.6589	-19.6776	-7.44266
18.6598	299.182	4.89011	-1.0853	7.71842	-6.11333	-7.79561
19.9908	298.745	4.8744	-6.56606	14.2063	-16.8617	-7.78029
17.6289	298.24	4.9221	7.72634	1.19447	-7.12954	-7.79896
41.8199	318.122	4.99653	8.64834	3.9551	-2.40382	-7.80581
43.1285	318.631	4.99722	8.48994	4.17244	-2.44587	-7.80077
44.2405	317.769	4.9991	8.95109	5.02978	-1.81545	-7.80598
44.047	316.379	4.99961	9.42208	5.3148	-2.40979	-7.80208
42.8677	308.08	5.00034	8.18085	3.6718	-1.20342	-7.80197
43.9806	307.222	5.00008	8.62927	2.93151	-0.985877	-7.80383
45.2858	307.743	5	10.4089	-5.41635	-4.12551	-7.80501
45.4811	309.114	5	10.3828	-5.85242	-2.1115	-7.8057
42.1463	311.716	5.00137	8.20168	3.03957	-2.12008	-7.80483
41.9519	310.328	5.00123	8.07228	2.5058	-1.54003	-7.80662
43.4531	312.229	5.00071	7.7941	2.68149	-1.94807	-7.80149
43.064	309.47	5.0006	8.47245	3.55947	-1.08472	-7.80176
44.5663	311.372	5.00029	7.96811	4.3987	-1.33447	-7.80545
44.3728	309.981	5.00026	8.93324	4.75004	-1.72609	-7.80287
3.1829	306.482	5	8.97879	-0.140017	-2.2728	-7.80594
5.5621	307.021	4.99561	7.04323	2.84413	-2.29326	-7.80867
4.53423	306.069	5	9.91249	-6.29687	-0.141822	-7.80382
11.6597	307.675	4.95891	8.66612	1.80444	-2.45968	-7.80321
11.9867	306.312	4.94926	8.94351	1.46419	-2.58276	-7.80669
21.6259	361.746	5.00683	-10.5861	13.2242	-9.87404	-7.78772
20.29	362.15	5.00255	-4.90381	9.5608	0.129022	-7.79436
20.9798	359.428	5.0301	14.6295	-0.748107	-0.114285	-7.78873
22.0135	360.385	5.01811	24.2646	12.0174	-10.4803	-7.79786
19.6245	359.817	5.0231	13.2921	6.25907	-0.261904	-7.81265
19.2801	361.18	5.00913	2.94976	6.06646	-1.56244	-7.80588
44.2567	396.083	4.98549	2.59657	1.33487	0.703359	-7.80623
43.1516	396.943	4.96362	2.1802	1.03544	0.476873	-7.80642
43.3462	398.327	4.96897	2.11334	1.27455	0.14042	-7.80689
44.6433	398.854	4.98938	1.85872	1.95005	0.597075	-7.80685
45.5537	396.612	5	2.78199	-1.46852	-0.34074	-7.80908
45.7454	397.992	5	3.34397	-1.77485	0.378592	-7.80681
36.1525	399.312	4.84001	0.268515	3.46468	0.615531	-7.80764
38.5489	398.987	4.8667	0.484199	3.69852	0.931571	-7.80778
37.4455	399.847	4.86281	0.292364	3.52298	0.795867	-7.80594
27.4985	398.331	5.26804	3.48236	-5.63997	5.23913	-7.78549
28.7849	398.875	5.15286	2.53048	2.65811	4.14585	-7.81646
29.8826	398.026	4.98789	0.334276	1.21457	2.36703	-7.80127
33.1812	395.464	4.73163	0.260018	3.59684	1.53627	-7.80679
32.0785	396.324	4.78047	0.262978	3.65572	1.42255	-7.80285
32.9887	394.078	4.68726	-2.22316	3.09322	2.34469	-7.80702
31.6992	393.539	4.66863	-3.27612	2.9499	3.37449	-7.80513
40.3662	394.493	4.87997	0.789967	2.53733	1.56779	-7.8073
40.1692	393.107	4.87022	0.601514	2.35947	1.94877	-7.80721
38.8766	392.572	4.82369	0.589702	2.77485	1.99777	-7.80677
37.7741	393.432	4.78735	0.437535	2.87938	1.97999	-7.80705
27.6171	346.284	6.88758	-4.84821	-18.3791	19.3568	-7.39784
26.1993	346.237	6.7746	-3.36871	-22.0428	-23.5938	-7.40413
27.9683	347.659	6.90852	-66.8939	-6.17867	-13.2124	-7.23955
26.8244	348.444	6.7926	-35.1241	-45.5194	-7.2995	-7.2555
25.7453	347.581	6.71944	-71.1475	-4.67962	1.52432	-7.24188
48.8607	394.029	5	-0.762508	-21.4108	10.2178	-7.58581
49.9622	393.169	5	-0.509312	-6.56649	11.8262	-5.13421
49.6382	399.565	5	-0.0629895	-7.31998	11.3018	-5.13573
47.6296	402.67	5	2.15507	-12.1491	3.04487	-7.69683
47.2409	399.902	5	0.525145	0.410042	-0.0429859	-7.80731
48.5367	400.426	5	-0.022465	-22.1529	9.84952	-7.58579
48.7311	401.809	5	5.63818	-28.0365	15.3736	-4.98391
46.3338	402.146	5	3.33748	0.646137	-2.47092	-7.80545
46.1394	400.763	5	2.17563	-0.608496	0.250905	-7.80864
46.7873	387.97	5	5.73185	-0.212316	1.77806	-7.80481
46.3986	385.201	5	0.331068	0.908814	0.00114965	-7.80746
47.6944	385.726	5	2.0223	-13.1344	2.92513	-7.69766
47.8888	387.109	5	-0.57372	-10.5657	-6.67322	-7.69738
45.4823	387.442	5	4.95286	-3.63274	2.17861	-7.80369
45.2965	386.063	5	3.60633	-2.92758	0.889761	-7.81062
46.9817	389.353	5	0.697934	-0.347934	-0.386125	-7.80741
46.0678	391.595	5	4.19498	-1.9428	1.05348	-7.80612
45.879	390.214	5	2.95552	-1.75505	0.283241	-7.81065
47.3705	392.122	5	3.94691	0.381472	1.72552	-7.80565
49.7678	391.785	5	-7.14863	0.173028	-11.6095	-5.13403
49.379	389.016	5	-0.0853843	-7.2886	11.2739	-5.13582
48.2776	389.878	5	2.06301	-12.0584	3.06769	-7.69686
48.4719	391.262	5	-1.45113	-9.76542	-6.37347	-7.69686
33.24	440.023	4.87719	2.67127	5.23808	-2.23133	-7.80687
33.0493	438.633	4.87262	3.59203	5.07542	-1.63458	-7.80613
31.748	438.114	4.84271	3.62825	4.16547	-1.62761	-7.80475
30.6474	438.983	4.80469	4.09611	4.81311	-1.13932	-7.8099
29.3463	438.462	4.76511	4.13239	2.75421	-0.795585	-7.8013
29.1502	437.076	4.78304	5.73576	3.11707	-2.97599	-7.79952
32.9659	429.437	4.95682	6.17638	4.63938	-0.399081	-7.80698
30.557	429.785	4.94017	6.88282	5.7982	-1.49523	-7.80861
31.8617	430.304	4.94027	6.11123	4.62046	-0.600597	-7.80302
31.1645	433.947	4.88083	1.73091	4.96738	0.281534	-7.80503
32.6568	435.858	4.88083	3.97884	5.20181	-1.24404	-7.80734
32.4646	434.468	4.89263	2.68186	5.19373	-0.622407	-7.80606
30.0675	434.816	4.84841	-0.424801	5.20982	-0.591744	-7.8063
31.5549	436.725	4.85001	4.00667	4.00273	-1.60971	-7.80479
30.2526	436.206	4.82701	4.83556	5.44053	-2.37235	-7.80919
38.4919	425.113	5.00361	7.43318	3.38667	0.890153	-7.80687
39.6022	424.256	5.00655	7.37952	2.9248	0.678952	-7.80515
40.9072	424.774	5.00345	7.7299	3.19219	0.248543	-7.80727
41.1069	426.163	4.99963	7.32955	3.31904	0.442281	-7.80458
40.5138	422.01	5.01217	8.57851	2.8483	0.21401	-7.80428
40.3141	420.621	5.01697	8.88092	2.59009	0.596813	-7.80612
32.157	423.885	5.01591	8.05724	4.65773	0.518896	-7.80341
33.2649	423.022	5.02427	7.94323	5.41047	0.718534	-7.80592
28.4337	423.715	5.01658	12.7422	9.78734	-4.89694	-7.80755
29.7434	424.232	5.01114	9.48658	4.9285	-1.02551	-7.79597
30.6557	421.974	5.03945	3.74489	5.78888	1.13968	-7.80575
30.8507	423.365	5.02215	8.81109	6.04861	-0.443183	-7.8092
34.8772	417.138	5.06921	10.5974	2.88332	1.19884	-7.80685
35.0792	418.526	5.05784	10.4015	3.24555	1.21495	-7.80124
26.2834	417.641	5.12953	34.7467	2.25345	-16.6436	-7.74214
25.0995	418.483	5.09575	69.0807	8.03193	-1.51017	-7.72057
27.2526	415.348	5.21717	-9.36536	19.7847	12.1576	-7.78005
26.1911	416.247	5.18917	-35.1764	-0.087468	-12.3598	-7.76606
24.9502	415.702	5.21637	-62.6701	4.65439	-15.3069	-7.33824
26.304	406.967	5.90956	-27.6787	16.3178	9.74413	-7.74641
25.2675	407.842	6.17508	-40.9059	4.98459	-6.07611	-7.71715
26.0742	405.572	5.98467	9.77099	15.7355	16.7084	-7.78991
24.8068	404.993	6.28646	14.5575	-2.85895	23.7598	-7.82558
27.5819	390.565	4.57895	13.137	-3.7755	-4.9937	-7.79017
30.1977	391.618	4.60286	1.63908	1.6415	3.75033	-7.80034
29.9926	390.234	4.55912	4.35054	2.62594	1.13162	-7.79836
28.6938	389.701	4.53387	7.35861	6.39366	-2.25859	-7.80959
15.6916	414.091	5.05834	8.10593	-2.50439	0.257013	-7.79839
16.7379	415.023	5.05763	9.0484	-0.776952	-1.42057	-7.8086
18.0791	414.608	5.10907	7.0051	-1.67455	-4.96946	-7.796
12.877	409.89	5.14825	3.04007	-1.66559	3.87098	-7.80238
12.5755	411.251	5.07462	4.58116	-1.99896	3.23016	-7.80715
11.2346	411.651	5.02987	4.22765	-1.03394	2.72329	-7.80558
11.8464	408.941	5.14525	2.38095	-0.559337	3.61781	-7.80774
10.508	409.34	5.07621	2.02939	-0.626182	2.90899	-7.80482
10.2027	410.703	5.03231	3.32919	-0.509029	2.81464	-7.80684
13.7719	405.819	5.48177	-2.70231	0.0883025	1.8506	-7.80548
15.0953	405.42	5.66442	-3.97913	-0.976342	0.796282	-7.80563
13.4779	407.18	5.35959	-0.365232	0.596584	2.99685	-7.80917
16.1093	406.375	5.7233	-5.94502	0.0654064	1.20728	-7.80436
14.5031	408.132	5.38053	-0.840474	-1.49436	4.07344	-7.79954
15.8293	407.734	5.55667	-1.24261	0.985043	4.01587	-7.81156
6.72935	382.622	4.99106	1.11605	0.441744	1.42594	-7.80555
6.4152	383.985	4.99864	0.435535	0.445262	1.55483	-7.80651
5.7059	381.669	4.99402	1.79118	1.50603	0.796862	-7.8064
5.0755	384.383	4.99932	0.000444026	-0.843547	0.904374	-7.80889
4.05412	383.429	5	3.77599	-3.22412	0.0247418	-7.80869
4.36633	382.072	5	2.86617	-1.77817	2.85767	-7.80617
9.8465	299.388	4.96566	9.41782	0.797548	-1.11159	-7.8063
9.5257	300.753	4.96239	9.52121	0.693533	-1.48793	-7.80226
10.5649	301.694	4.95072	10.5688	0.368205	-2.02208	-7.80672
11.1919	298.98	4.96042	9.82911	-1.00505	-0.543355	-7.80212
12.2337	299.92	4.94368	11.243	-0.0376087	-1.55977	-7.80644
11.9108	301.283	4.93914	10.6645	-0.277289	-2.10921	-7.80178
20.1449	292.368	5.29258	3.4585	8.81093	9.35021	-7.8049
18.8193	292.814	5.32255	3.89502	-0.224073	8.79138	-7.78151
21.2056	293.268	5.04724	2.44822	1.98015	16.7186	-7.76292
42.5482	445.03	4.99392	7.55073	2.60834	-1.57139	-7.8059
42.3524	443.642	4.9915	6.22699	2.26444	-1.46545	-7.80534
41.0465	443.131	4.98513	6.4975	2.34882	-1.87443	-7.80814
41.4376	445.89	4.99257	7.54145	1.10659	-1.9889	-7.80397
40.1309	445.379	4.98725	7.6693	2.2472	-2.14768	-7.80663
39.9374	443.99	4.9818	6.25056	1.98791	-2.28461	-7.80414
39.5481	441.229	4.97142	6.19556	3.14959	-2.26611	-7.8079
39.3563	439.841	4.96702	5.812	3.14689	-1.859	-7.80439
40.8532	441.742	4.98143	6.08116	2.52126	-1.97319	-7.80384
40.4631	438.977	4.97518	5.93957	3.3725	-1.65059	-7.80779
41.7676	439.492	4.98465	6.0736	2.76824	-1.65039	-7.80512
41.9612	440.881	4.98678	6.20468	2.75475	-1.77009	-7.80713
27.8942	445.77	4.70624	3.45335	8.52363	-2.48671	-7.81791
26.9851	448.042	4.72619	-17.067	15.9196	-10.2634	-7.7692
27.0839	449.45	4.81948	13.4706	20.5224	-22.8434	-7.77473
29.3619	447.683	4.88028	-0.698172	7.10418	-10.6788	-7.78839
28.0726	447.162	4.78254	-7.034	10.0627	-4.83656	-7.80093
25.7319	447.497	4.51247	-31.58	21.0034	5.14493	-7.74357
23.5153	447.813	4.01431	-80.7109	-3.95544	-10.7303	-7.23562
24.6875	448.394	4.34966	-46.7295	8.80288	-13.2853	-7.70753
23.182	446.434	4.01414	-12.4499	-16.9578	24.7841	-7.41746
33.6218	442.8	4.90368	4.63224	3.52009	-4.48872	-7.80177
33.8037	444.188	4.92373	6.21482	3.74779	-5.01624	-7.8088
17.7492	442.545	4.551	5.64603	6.25185	4.46986	-7.81068
20.3247	441.729	4.37666	-45.9743	-7.40624	9.62628	-7.74927
21.2159	444.035	4.25907	60.2126	1.98623	6.99641	-7.75404
20.8216	445.379	4.15954	19.9005	-10.9477	-17.9474	-7.84034
20.1187	443.103	4.35621	23.2128	-2.6487	19.9632	-7.74726
18.7743	443.505	4.44459	9.86362	-3.90512	9.32022	-7.78961
18.4472	444.858	4.43987	4.75505	-8.3311	-2.85451	-7.78551
19.47	445.8	4.29961	14.2003	7.20514	-14.3459	-7.79886
25.0428	441.944	4.40968	-44.3413	-7.04076	-13.9959	-7.74934
27.5205	442.986	4.61787	6.41174	9.89625	-7.85	-7.80115
28.2454	439.33	4.70663	5.70024	4.62034	0.572566	-7.81902
28.4567	440.716	4.69556	-6.04739	4.79194	0.849421	-7.80283
27.3718	441.588	4.61582	-13.5328	8.86059	-1.7054	-7.79328
26.0936	441.053	4.53085	-22.0549	13.2304	8.5856	-7.7762
23.8157	441.394	4.32567	-74.1859	-3.52116	-16.7688	-7.30415
22.6697	442.173	4.26331	-30.7006	-37.7277	0.670442	-7.25098
21.5981	441.292	4.31165	-75.2743	-2.36044	10.1652	-7.31034
30.6456	474.025	5.00942	15.5626	4.50382	2.62114	-7.8064
31.9497	474.565	4.99073	12.7119	0.336992	5.52716	-7.79864
29.733	476.246	4.94583	14.0468	-4.93927	11.5146	-7.77639
29.5137	474.865	4.97918	22.0759	-2.9528	1.16111	-7.78458
32.1568	475.952	4.9579	11.0364	-0.0725566	7.35841	-7.79253
31.0366	476.794	4.94074	13.455	2.19979	9.36062	-7.80798
0.74543	494.564	5	7.95575	-30.226	-12.505	-4.98328
3.41878	493.748	5	5.41006	-0.0185174	-1.56546	-7.80589
3.10422	495.109	5	1.82258	1.02657	1.68055	-7.80762
1.76763	495.518	5	2.22613	-13.3994	-1.76465	-7.6969
2.39658	492.794	5	0.320395	0.578894	-0.218729	-7.80703
1.06	493.203	5	1.2488	-23.4118	-7.97722	-7.58578
0.116482	497.288	5	18.1346	9.37961	-2.98047	-2.87957
0.0377962	492.25	5	1.73428	-7.89164	-10.9525	-5.13427
2.71114	491.431	5	5.12486	0.482195	-1.99794	-7.80628
4.3671	489.667	5	5.55784	-3.66918	3.22674	-7.80685
4.05674	491.02	5	6.41581	-4.89682	0.994153	-7.80741
5.4723	431.096	4.99862	5.69636	2.16266	-0.854254	-7.80335
6.5018	432.047	4.99554	5.33058	2.66448	-0.956348	-7.80523
1.76763	430.962	5	2.28203	-13.4263	-1.75117	-7.69719
3.10422	430.553	5	2.17417	1.26367	1.9119	-7.80676
1.45307	432.323	5	32.3732	-5.16924	-12.1785	-8.08488
2.47527	433.277	5	5.55547	0.990526	-1.68884	-7.80327
4.13112	431.511	5	5.74615	-2.44184	1.75674	-7.81082
3.82159	432.866	5	5.28575	-3.90039	-0.537969	-7.80753
43.3338	189.439	5.00326	6.07984	0.837168	2.17416	-7.80647
44.2391	187.202	4.99825	4.96703	1.8189	3.14064	-7.81233
44.4472	188.588	4.99967	7.42694	2.01019	3.05774	-7.79983
42.0337	188.91	5.00689	5.73175	0.542484	2.62001	-7.80466
42.9391	186.673	4.99567	5.71174	1.37392	2.56859	-7.8028
41.8279	187.525	4.99871	6.18207	0.775558	2.52953	-7.80723
0.58824	484.486	5	-9.22979	2.57611	10.7485	-5.13363
33.0594	490.679	5.13359	2.10643	3.79005	4.81947	-7.80386
32.8466	489.293	5.09946	6.096	3.5044	5.35292	-7.80698
31.0403	493.777	5.28618	6.90748	3.04402	2.74016	-7.79857
32.1502	492.923	5.22388	5.29161	4.1331	2.64655	-7.81008
29.7401	493.241	5.31926	10.4225	6.64057	-1.24559	-7.81153
31.9553	491.535	5.18943	-0.0263677	4.4011	4.10338	-7.80441
29.5723	491.848	5.2805	-10.4302	6.50506	3.91204	-7.79268
30.6663	490.989	5.21205	-2.53952	3.32921	6.68392	-7.80378
28.9181	487.687	5.13586	17.2347	-2.47969	-2.66209	-7.78944
29.1383	489.066	5.1871	9.64911	-4.48649	8.6666	-7.78143
30.4391	489.606	5.16991	9.03023	2.94545	6.72584	-7.81301
31.5489	488.752	5.1121	6.78174	2.62937	5.26492	-7.79809
34.8616	486.203	4.99866	6.04086	2.52152	4.00848	-7.80608
33.7497	487.055	5.0267	6.48334	2.81597	4.24276	-7.80354
36.0542	494.533	5.14052	4.34751	2.96546	3.305	-7.80469
34.9463	495.389	5.18582	4.47126	3.46674	3.55977	-7.80731
35.8509	493.147	5.12194	4.40067	2.7833	3.38385	-7.80594
34.5551	492.608	5.14388	4.41066	4.0124	3.50369	-7.80644
33.4464	493.462	5.1956	4.62518	2.95039	3.3489	-7.80512
33.6511	494.848	5.21812	4.42919	3.0516	3.83251	-7.80306
33.1362	499.879	5.27405	3.44677	4.49597	2.33132	-7.80492
34.2432	499.021	5.24077	3.40315	4.4108	2.45843	-7.80748
31.8416	499.34	5.3166	3.99051	5.40497	1.76745	-7.80946
34.0457	497.633	5.24136	1.93389	4.49346	3.11082	-7.80562
31.652	497.95	5.32588	-1.5217	5.71252	3.258	-7.80451
32.7539	497.09	5.28146	0.937959	4.33869	4.07312	-7.80425
36.6763	481.732	4.94988	7.45607	1.25935	4.58469	-7.80281
37.0668	484.505	4.96909	6.67414	2.19257	4.36631	-7.80532
37.9756	482.269	4.95785	7.38081	1.32558	4.41253	-7.80648
38.1803	483.655	4.96517	6.61531	1.59611	4.09358	-7.80293
47.2409	504.34	5	5.83979	-0.186421	1.79687	-7.80671
48.3424	503.478	5	-0.592645	-9.43807	-6.52786	-7.69645
48.148	502.094	5	1.31118	-12.4963	3.28056	-7.69688
46.8521	501.571	5	1.74626	1.29483	-1.4551	-7.80642
45.7467	502.434	5	6.02654	-3.44263	-0.299908	-7.80978
45.936	503.811	5	6.55458	-4.29172	1.04105	-7.80624
46.5282	507.966	5	3.11572	0.772755	-2.2062	-7.80714
45.4211	508.832	5	6.62815	-2.9413	-1.45346	-7.80879
45.6123	510.208	5	6.92786	-3.62453	-0.0964424	-7.80611
46.9169	510.735	5	4.9263	0.545155	1.98581	-7.80644
47.824	508.491	5	1.6773	-12.5128	3.49404	-7.69588
48.0183	509.875	5	-1.37334	-9.86612	-6.35666	-7.69663
49.8326	583.713	5	-0.0854666	-7.29047	11.2748	-5.13581
49.6382	582.33	5	-6.75093	-0.801305	-11.537	-5.13577
49.9622	497.605	5	17.402	9.89304	3.57495	-2.88017
16.6203	501.193	4.73687	0.82423	-0.745969	1.58229	-7.81025
17.2685	498.494	4.99159	2.26223	1.52472	4.50773	-7.80853
18.2845	499.462	4.96556	3.53505	0.123882	5.0426	-7.79711
17.9628	500.813	4.82033	1.65757	-1.53774	2.3207	-7.80262
15.9256	498.876	4.91353	1.0509	0.610841	2.5663	-7.80421
15.6055	500.233	4.80186	0.217332	0.0800758	1.73528	-7.80489
4.04785	512.543	5	0.768192	-1.93244	1.10844	-7.81058
6.7201	511.74	4.93754	-1.18489	0.88652	2.30066	-7.80302
5.7028	510.78	4.97521	-1.22922	0.699365	2.1867	-7.81109
4.36751	511.185	5	1.1864	-0.200083	3.60552	-7.8018
6.4094	513.103	4.95615	0.30899	0.621526	2.33377	-7.81022
5.06975	513.498	4.99103	0.344382	-1.80256	1.98351	-7.80483
0.82412	650.235	5	-8.84851	1.54098	10.7926	-5.13537
0.509555	651.596	5	1.71449	-8.98028	-10.7591	-5.13498
2.16071	649.825	5	-2.01413	-8.03893	6.85506	-7.69633
3.1829	650.779	5	7.67208	-0.116562	-2.02198	-7.80586
2.47527	648.462	5	5.4369	0.540059	-2.2132	-7.80437
3.82184	648.051	5	8.48598	-3.28988	2.94842	-7.80343
2.94703	657.18	5	7.07629	-0.141	-1.82425	-7.80563
1.92483	656.227	5	-2.44084	-8.04672	7.26791	-7.6955
2.63246	658.541	5	0.264567	-0.431945	0.0125585	-7.80818
1.29587	658.951	5	1.25634	-23.4094	-7.95701	-7.5859
4.0579	663.168	5	6.97567	-4.0415	0.316164	-7.80543
2.71114	663.58	5	5.81296	0.447296	-2.12818	-7.80617
4.76656	665.483	5	7.72679	0.575747	-1.64038	-7.80258
5.08345	664.122	5.00167	3.5902	0.331005	0.0314303	-7.81058
3.41878	665.896	5	6.82945	0.0559866	-2.07082	-7.80665
2.39658	664.943	5	0.305684	0.548091	-0.233094	-7.80657
4.36651	661.813	5	5.52413	-3.47958	1.49185	-7.80946
3.65466	659.495	5	4.29816	0.773542	-1.30375	-7.80991
3.3401	660.858	5	1.49637	1.76664	1.50041	-7.80711
4.99789	659.086	5.00229	6.36881	2.17746	-0.500691	-7.80462
5.70835	661.4	5.0044	6.17706	1.54526	-0.291388	-7.803
6.02825	660.037	5.00593	6.48802	1.42255	-0.437047	-7.80693
16.6362	673.267	4.9245	-2.72608	1.71859	-0.120328	-7.80602
17.9708	672.86	4.9442	-4.82217	0.484985	-2.91439	-7.80489
15.6212	672.307	4.96341	-0.632071	1.84752	-0.801812	-7.80587
15.9488	670.946	5.00735	2.93982	1.53027	-0.787159	-7.81034
18.3127	671.504	5.00575	6.18264	0.53632	-1.48656	-7.81869
17.2909	670.547	5.02892	3.67258	-0.69122	-0.0299682	-7.80287
10.2001	668.888	5.01764	2.68864	1.31172	-0.689462	-7.80687
8.86045	669.296	5.01052	2.95064	1.4672	-0.397464	-7.80662
7.8352	668.342	5.01023	3.31602	0.479934	-0.365296	-7.80797
14.2264	667.672	5.05434	3.16938	1.39337	0.00457613	-7.80898
12.8853	668.076	5.03944	3.24068	0.701886	0.200506	-7.80684
16.5918	668.228	5.0718	4.08458	2.81292	1.63671	-7.81064
17.6151	669.188	5.06709	5.28025	0.54159	2.41168	-7.79924
17.8838	662.783	5.1112	7.08109	1.32902	2.09809	-7.79861
15.5129	662.225	5.08374	5.11129	1.56428	0.120321	-7.80523
16.8572	661.825	5.09587	6.02644	3.86784	1.25863	-7.80939
19.2312	662.385	5.12371	9.52867	6.95046	5.13596	-7.80955
20.263	663.349	5.14053	13.9494	-2.93534	10.0615	-7.78735
7.12995	666.027	5.01026	3.69387	1.65335	-0.768663	-7.80535
8.15585	666.981	5.01498	3.62491	0.638909	-0.411392	-7.80661
22.3274	665.236	5.17457	23.8933	-10.6713	-18.825	-7.84572
23.2889	666.223	5.19285	-3.68204	-23.7667	-20.4086	-7.44178
26.6553	663.178	5.15209	30.4851	-5.39554	-16.8522	-7.74445
25.4727	664.01	5.16655	66.9889	1.91167	-0.457466	-7.73325
26.5658	661.79	5.14252	-40.2338	-8.23815	-12.8873	-7.75869
25.3297	661.247	5.14779	-69.392	-5.00702	-15.5235	-7.32313
17.8255	657.738	5.07559	8.04037	0.535834	-0.446617	-7.80182
17.1713	660.458	5.09076	1.20341	3.14051	-0.769229	-7.80634
16.4796	658.14	5.0702	7.44808	2.57773	-1.03801	-7.80784
16.1494	659.503	5.07636	3.65754	2.37296	-1.4652	-7.8066
24.462	655.618	5.07315	-25.958	-37.4193	0.412589	-7.25449
26.9404	656.765	5.07504	32.3147	-4.84867	-16.9002	-7.74271
25.6112	654.834	5.06235	-66.7692	-3.35976	-15.3581	-7.32898
26.8492	655.377	5.06181	-38.2258	-7.78002	-12.6475	-7.76262
22.1042	655.171	5.06904	-39.8545	-6.37973	9.97781	-7.76241
21.1254	654.19	5.05892	-12.0193	9.65422	-12.4289	-7.78689
20.5367	656.939	5.08097	15.5714	-1.78779	9.41055	-7.78613
21.8915	656.546	5.08065	28.9695	-2.38155	19.9151	-7.74306
19.7945	654.605	5.05983	-6.2767	5.25203	-2.28798	-7.79565
19.5017	655.978	5.06937	11.5058	7.12365	4.53364	-7.80986
21.5498	667.99	5.15504	-44.1039	-8.0305	10.3911	-7.7542
21.3407	669.362	5.11908	25.8043	-3.51309	20.7835	-7.74446
19.9896	669.756	5.08676	12.3026	-3.46069	10.3541	-7.78799
18.9608	668.79	5.09392	7.78163	5.95751	5.60135	-7.81014
20.5767	667.007	5.14681	-16.3467	8.57006	-12.2359	-7.78303
19.249	667.42	5.11979	-9.8533	4.64776	-0.99551	-7.79487
25.0477	667.659	5.1899	-71.7185	-5.33739	-15.9513	-7.31642
25.7493	665.389	5.1783	19.5958	-7.35651	22.3916	-7.84503
24.705	666.286	5.19493	-7.88423	-19.5954	23.0261	-7.44007
49.7678	678.987	5	-0.509292	-6.56705	11.8262	-5.13421
49.5735	677.602	5	-7.14595	0.172268	-11.6083	-5.13406
41.8933	692.825	4.99598	7.02371	2.46364	-3.92798	-7.80582
43.2004	693.332	4.99835	6.26046	3.68341	-3.21085	-7.80187
44.1215	691.079	4.99937	7.59337	4.62354	-4.26996	-7.79788
44.308	692.469	4.9995	5.43031	3.93402	-3.54361	-7.80955
6.7428	640.847	5.01369	5.1887	0.92186	3.17897	-7.80405
7.3674	638.137	5.01393	5.47476	1.4972	3.09027	-7.80423
6.02155	638.529	5.00634	5.65087	2.69752	3.69018	-7.80443
5.71245	639.893	5.00606	4.96302	2.14887	2.74232	-7.80824
9.11925	641.403	5.03118	6.69624	-0.106625	2.31972	-7.80744
10.4646	641.008	5.03786	7.05806	0.325471	2.52731	-7.80425
10.7761	639.643	5.03265	6.00142	0.136408	2.84213	-7.80579
9.74265	638.695	5.02496	5.48463	-0.537192	3.19028	-7.80677
8.39805	639.089	5.02284	5.6234	0.835338	3.22839	-7.8063
8.0871	640.453	5.02374	5.3455	0.676503	2.8915	-7.80488
7.2247	649.555	5.00751	8.08722	1.92322	0.126529	-7.80426
6.1894	648.607	5.00389	8.31437	2.47671	-0.312125	-7.79941
4.84436	649.019	5	8.30869	-6.10997	3.60612	-7.8076
4.53199	650.366	5	9.63332	-7.16266	1.96812	-7.80528
47.6296	637.653	5	2.19084	-12.212	3.02462	-7.69656
46.1394	635.746	5	5.10705	-0.431784	1.21456	-7.81075
46.3338	637.128	5	5.16046	1.6868	-4.00705	-7.80346
48.7311	636.792	5	5.63818	-28.0365	15.3736	-4.98391
34.5968	641.523	4.85851	12.0266	3.55842	2.62725	-7.80554
35.7184	640.677	4.87122	11.8439	1.58185	1.98086	-7.80241
35.5208	639.288	4.85967	13.4035	2.04142	1.30615	-7.80354
34.2133	638.762	4.82601	14.1064	2.35895	0.875343	-7.79879
33.0861	639.606	4.80334	16.4572	4.08496	2.61619	-7.8042
33.2903	640.996	4.827	11.3468	3.47304	3.35369	-7.79935
49.5086	590.11	5	-0.509066	-6.56685	11.826	-5.13421
49.3143	588.726	5	-7.14842	0.172533	-11.6095	-5.13403
44.2398	578.851	5.00204	9.64895	3.1217	-0.704789	-7.80509
44.4382	580.239	5.00159	9.51644	3.14072	-0.330654	-7.80241
45.3479	577.985	5	11.9192	-10.0519	-1.6698	-7.80555
46.6578	578.514	5	7.88911	0.895708	3.0841	-7.80574
1.21719	632.392	5	7.98342	-30.1901	-12.4536	-4.98392
1.53175	631.031	5	1.28371	-23.4494	-7.98293	-7.58578
0.509555	630.077	5	1.71449	-8.98028	-10.7591	-5.13498
0.352361	598.48	5	-9.19402	2.57942	10.7472	-5.13403
0.0377962	599.843	5	1.73409	-7.89191	-10.9528	-5.13427
14.4364	37.2454	4.71168	-0.600383	2.26099	-1.04045	-7.80625
15.4482	38.2062	4.63595	-3.10535	2.32943	-0.222217	-7.80598
12.7858	39.0173	4.77117	1.18496	2.73195	0.492947	-7.80804
13.1	37.6533	4.76873	0.0149089	2.52174	-0.2672	-7.80706
13.8034	39.9768	4.70762	1.12999	2.05287	0.847334	-7.80493
15.1401	39.5711	4.62362	1.72505	2.77799	1.66809	-7.81012
16.597	55.6144	5.01066	19.2997	4.74768	-0.823976	-7.79494
17.9525	55.2004	4.996	21.3669	9.83079	1.45493	-7.79854
17.3206	57.9282	5.03801	19.9364	7.20546	-4.45396	-7.80628
16.274	56.9837	5.02701	17.8176	4.08939	-2.43448	-7.79203
8.65855	51.6894	5.00911	9.97139	2.09276	3.14248	-7.80337
9.27875	48.9782	4.9953	7.62011	2.55862	3.31967	-7.80781
7.62045	50.7406	5.00589	9.35731	2.38497	3.21742	-7.80495
7.93255	49.3744	5.00191	7.59135	2.17032	3.09334	-7.80333
9.07225	55.3686	5.01501	13.5335	2.03211	1.66004	-7.80111
9.3883	54.0016	5.01438	12.4654	2.14509	2.16288	-7.8032
10.1175	56.3115	5.01923	14.6865	2.44226	1.0092	-7.8025
10.739	53.6056	5.01538	12.7326	1.54066	2.40304	-7.80163
11.4704	55.9138	5.02155	14.8166	1.97624	0.912201	-7.79898
11.7863	54.546	5.01804	14.4351	2.12667	1.44107	-7.80269
11.6609	49.5299	4.98102	8.41868	1.82124	4.06673	-7.80663
11.0496	52.2382	5.0102	11.2652	1.67366	2.91238	-7.80327
10.3152	49.9274	4.99715	8.1167	1.74946	3.59497	-7.80257
10.0069	51.2942	5.00738	10.0845	1.78142	3.35866	-7.80463
12.7036	50.4733	4.98319	9.87488	1.02369	3.89309	-7.80291
12.3981	51.8405	5.00221	11.4356	0.877335	3.11062	-7.80229
13.5943	46.3936	4.84439	1.20018	2.38847	4.64246	-7.79744
14.9282	45.9863	4.74512	0.911651	3.79735	4.82492	-7.81214
15.2108	44.6187	4.66246	-5.47756	2.51644	1.48986	-7.8038
12.5673	45.4386	4.86363	1.99659	3.78657	3.38912	-7.8103
12.8636	44.0712	4.81306	-1.3093	3.06581	1.78949	-7.80443
14.1951	43.661	4.7163	-2.63188	2.24283	0.422963	-7.80573
2.00351	58.7453	5	2.16665	-12.9593	-1.8532	-7.69668
3.3401	58.3368	5	4.80313	3.09016	4.70369	-7.80445
0.98131	57.7921	5	7.87756	-29.6896	-12.6962	-4.98362
3.65466	56.9749	5	7.87743	-0.239645	-1.15833	-7.81048
0.273675	55.4767	5	1.68511	-8.46385	-10.8921	-5.13477
2.94703	54.6595	5	7.56866	0.233058	-2.10415	-7.80662
1.29587	56.4301	5	1.15428	-22.8868	-8.09759	-7.58611
2.63246	56.0215	5	0.629804	-0.10793	0.128793	-7.81109
0.58824	54.1148	5	-8.98486	2.06315	10.754	-5.13473
1.92483	53.7063	5	-2.23228	-8.56327	7.14553	-7.69668
6.41665	39.6843	4.98113	1.99359	2.0367	1.04407	-7.80817
5.07635	40.0861	4.99612	1.79944	0.107548	0.542087	-7.80674
4.76001	41.4474	5	4.4895	1.97706	1.37192	-7.80873
2.00351	37.2268	5	2.08955	-12.8794	-1.89214	-7.69671
0.98131	36.2735	5	7.87756	-29.6896	-12.6962	-4.98362
0.0377962	40.3593	5	1.64406	-8.51289	-10.9378	-5.1347
2.39658	40.904	5	0.0475815	-0.00238923	-0.041544	-7.80744
1.06	41.3125	5	1.09367	-22.8207	-8.15363	-7.58614
2.71114	39.5421	5	3.09464	0.18096	-0.907051	-7.80777
1.68894	38.5889	5	-2.3416	-8.45687	7.09253	-7.69665
0.352361	38.9974	5	-8.98196	2.0558	10.7516	-5.13469
0.82412	26.1951	5	-8.98032	2.16819	10.7263	-5.13465
2.16071	25.7866	5	-2.30741	-8.49062	7.02808	-7.69665
2.47527	24.4245	5	3.16983	0.262901	-0.995886	-7.80569
0.116482	23.8797	5	18.044	9.35333	-2.92755	-2.87983
1.45307	23.4713	5	32.1642	-4.68997	-12.3471	-8.08475
0.0377962	18.8407	5	1.64191	-8.4612	-10.9556	-5.13469
0.352361	17.4787	5	-8.97726	2.11219	10.7377	-5.13468
0.58824	75.6333	5	-8.97932	2.1684	10.7282	-5.13466
0.273675	76.9954	5	1.65005	-8.40341	-10.965	-5.13467
30.7766	65.5927	5.4806	5.36295	-3.20764	4.43982	-7.79131
32.0857	66.0967	5.4789	5.12508	-1.23358	3.83329	-7.8087
33.178	65.2387	5.31885	5.69757	-2.11078	3.57736	-7.79937
13.3481	69.2653	5.09983	9.13624	7.0852	-0.426725	-7.8057
14.3726	70.2281	5.12664	7.40817	7.40358	0.24105	-7.80236
13.6764	67.8977	5.10175	10.1041	6.74591	-1.25604	-7.80399
15.7186	69.8244	5.16913	6.91476	8.69745	-0.370687	-7.80683
15.0246	67.4918	5.13044	9.64685	7.44473	-2.02093	-7.804
16.0466	68.4562	5.17185	7.67025	8.27871	-1.49321	-7.7999
19.6062	80.144	5.28622	17.3592	6.56735	0.976276	-7.81339
18.5725	79.1845	5.24374	12.2812	3.12138	4.74377	-7.79604
17.2198	79.5648	5.17433	11.2948	4.91337	3.93186	-7.80688
16.8937	80.9296	5.14104	7.44267	4.57136	2.85116	-7.80265
20.267	82.4835	5.25952	-4.72686	11.6549	0.833503	-7.79332
18.6174	84.2362	5.1252	8.78786	5.75132	5.30469	-7.79343
19.9711	83.8593	5.19715	11.2669	13.8022	8.78647	-7.80326
19.2623	81.5067	5.23362	4.20081	6.3499	-0.543312	-7.80229
17.5986	83.2626	5.115	8.84691	7.00899	4.19166	-7.80629
17.9157	81.8948	5.16141	6.14753	6.54047	2.31787	-7.80592
16.191	78.6023	5.1471	9.83565	4.79865	4.55197	-7.80343
16.5071	77.2353	5.1705	9.81227	5.54204	5.97658	-7.79743
11.4323	77.4535	5.05227	9.00002	4.41292	2.7808	-7.80596
9.76305	79.2104	5.02533	8.44838	3.48927	2.26799	-7.80576
10.0829	77.8445	5.03481	8.75165	3.60067	2.3467	-7.8037
10.7923	80.1675	5.02787	8.13057	3.23638	2.52236	-7.80462
15.7886	74.8996	5.15967	7.11721	7.12934	4.7448	-7.79616
13.1005	75.6958	5.08629	9.32803	5.88606	3.53259	-7.80695
14.1291	76.6577	5.10348	9.0953	5.1329	4.13401	-7.80043
15.4796	76.2697	5.14156	9.64437	7.14738	4.97255	-7.8071
14.7637	73.9336	5.13141	8.13163	7.89133	3.67593	-7.80874
13.4152	74.3274	5.09722	8.05522	5.88075	3.35396	-7.80003
44.1744	47.5045	4.99873	11.5172	4.49016	-1.58636	-7.8011
44.3689	48.8948	4.9985	10.4946	4.28382	-1.1255	-7.803
45.6746	49.4192	5	11.3821	-6.20181	-3.6875	-7.80437
45.2852	46.6374	5	12.1715	-11.34	-3.11966	-7.80602
46.593	47.1661	5	7.07138	0.644186	2.53792	-7.80756
46.7873	48.55	5	5.74376	2.6525	-4.22102	-7.80581
49.9622	1.53097	5	-0.341373	-6.71828	11.6225	-5.1346
49.7678	0.14704	5	-7.11515	-0.0969076	-11.6409	-5.13442
3.10422	0.182232	5	-0.192026	-0.625982	-0.0230772	-7.80738
4.126	1.13512	5	-2.84026	1.05513	0.412873	-7.80303
1.76763	0.590739	5	1.91973	-12.87	-1.97848	-7.69671
1.45307	1.95275	5	32.0425	-4.50163	-12.426	-8.08466
2.47527	2.90603	5	-2.14095	-0.0248604	0.661526	-7.80817
3.80824	2.49863	5	-0.671283	2.32685	1.73305	-7.80477
5.45925	0.730076	5.02686	-3.74249	-1.40557	1.05653	-7.80936
7.805	1.28163	5.16215	-3.84329	-1.35052	1.04264	-7.8062
6.47415	1.68705	5.06908	-3.72535	-1.09478	1.06845	-7.80735
4.60086	9.8544	5	-0.696383	0.467505	2.03083	-7.80377
3.57598	8.89862	5	1.2924	0.910965	1.3039	-7.80574
5.22555	7.13253	5.01431	-2.39749	-0.517169	1.42622	-7.81002
3.89054	7.5366	5	-1.86589	-0.0415453	0.949674	-7.804
9.9287	8.23335	5.15452	-2.7412	-0.440295	0.919502	-7.80641
10.9482	9.18771	5.15431	-2.57952	-0.104291	0.713699	-7.80711
10.6425	10.55	5.1113	-1.7602	0.139735	0.982633	-7.80733
14.4406	15.7174	4.89426	-0.0349176	2.22247	1.1094	-7.80859
14.742	14.3512	4.90495	-0.387792	1.6654	0.400934	-7.80641
13.7175	13.4027	4.9854	-0.63158	1.03282	0.703735	-7.80677
10.0227	13.2747	5.04508	-0.159818	0.466015	1.46832	-7.80587
11.3589	12.8661	5.05361	-0.392481	0.642489	1.21792	-7.80787
12.3833	13.8174	5.01533	-0.275931	0.950588	1.10021	-7.80596
41.6149	55.6165	4.98562	12.2054	0.521634	1.05654	-7.80211
41.413	54.2289	4.98612	12.747	0.731913	0.640005	-7.80276
42.533	53.3799	4.99114	12.542	1.64854	0.863618	-7.80295
42.9248	56.1325	4.99103	12.068	1.24213	0.977085	-7.80239
44.0459	55.2846	4.99599	12.4947	2.83713	1.60348	-7.79565
43.8438	53.8957	4.99537	12.1196	2.75334	1.32949	-7.80467
21.1541	30.172	4.75318	23.9627	-5.67957	-17.247	-7.85394
22.1104	31.1689	4.75549	-4.05588	-19.2901	-18.3339	-7.44343
19.7871	30.5811	4.74577	19.1067	10.8202	-13.2735	-7.79755
19.397	31.9402	4.72468	-16.7404	11.9949	-12.2568	-7.78256
20.3647	32.9305	4.69983	-45.3297	-5.47067	11.2577	-7.74984
21.6437	32.5061	4.71952	-74.9021	0.203783	11.6853	-7.31492
26.6893	36.4828	4.76245	6.40759	-4.26157	6.64409	-7.78483
26.4769	35.1041	4.79568	14.614	-2.26819	-4.67081	-7.79066
32.0595	40.0283	4.93112	3.84545	6.06627	-1.00288	-7.80789
33.3563	40.5616	4.95685	4.30219	5.58156	-1.3709	-7.80401
33.5369	41.9534	4.95857	5.60172	5.92435	-2.14888	-7.80787
32.4267	42.8145	4.9388	4.9155	6.23289	-2.57552	-7.80334
30.9518	40.8896	4.89444	3.54857	6.26836	-1.28425	-7.80327
31.1298	42.2818	4.90155	4.06816	6.59396	-1.786	-7.8059
29.6579	40.3511	4.84053	3.56572	7.24688	-1.38556	-7.80783
27.2591	40.6687	4.67057	6.98162	9.20634	-4.19943	-7.80553
28.5505	41.2117	4.76688	4.49707	6.22709	-1.53868	-7.79908
29.4854	38.958	4.84915	-3.16067	6.77828	0.993848	-7.80558
27.1112	39.2719	4.69571	-14.1984	8.60783	1.58449	-7.79152
28.2012	38.4111	4.79271	-6.36165	5.39298	4.4945	-7.80231
37.2184	32.9587	5.01382	4.31269	2.49744	0.394252	-7.80567
37.0245	31.5711	5.0178	4.37747	2.42392	0.553563	-7.80833
38.5178	33.4847	5.01357	4.53703	2.71296	0.0667285	-7.80774
38.1337	30.7152	5.02186	4.07112	1.64279	0.109235	-7.80549
39.4333	31.2396	5.01926	4.29024	2.04724	-0.187297	-7.80772
39.6262	32.627	5.0152	4.30489	2.13221	-0.256953	-7.80597
39.6692	41.8003	4.9969	7.67453	3.52693	-2.00179	-7.80338
39.2869	39.0326	5.0005	6.41915	3.73858	-1.32637	-7.80697
38.1766	39.8921	4.99689	6.19292	3.90649	-1.48517	-7.8045
38.3645	41.2822	4.99506	7.52839	4.13792	-1.98961	-7.80752
40.5906	39.5519	5.00064	6.64039	3.63598	-1.49109	-7.80496
40.7816	40.9416	4.99914	7.87433	3.76819	-1.73259	-7.80662
25.2799	0.725431	4.66715	65.0265	-0.908789	-3.07882	-7.70592
30.5746	19.7891	4.39337	-3.66231	-1.74118	-4.40689	-7.78741
29.3092	19.2755	4.11482	-3.44841	3.20943	-6.43142	-7.81184
31.673	18.9271	4.45316	-3.0828	0.900801	-2.73466	-7.81111
29.1801	17.9011	3.89334	-16.7695	2.52614	0.796714	-7.78536
30.2502	17.0277	4.03178	-10.7693	-1.50285	2.052	-7.79895
31.5114	17.548	4.30188	-8.0945	0.520284	-0.205571	-7.80308
5.78635	20.8861	4.9944	5.37777	3.00552	1.80576	-7.80646
5.47385	22.2517	4.99473	4.21747	2.6336	1.11589	-7.80582
7.13035	20.4874	4.98473	5.34457	0.993421	1.64578	-7.80476
6.5024	23.2047	4.98566	5.70387	2.46703	0.279935	-7.8084
8.16125	21.4377	4.96986	6.11847	1.18338	1.17105	-7.80738
7.8459	22.8021	4.96972	6.07281	1.10197	0.713181	-7.8047
48.4072	16.5681	5	-1.20415	-9.80251	-6.41891	-7.69675
48.7959	19.3362	5	-0.458807	-21.4701	10.122	-7.58601
47.3057	17.4285	5	-1.30852	-0.196281	-0.484284	-7.80833
47.5001	18.8124	5	-0.0115845	-0.0656427	-0.0121676	-7.80742
49.8974	18.4758	5	-0.354218	-6.70177	11.6481	-5.13484
49.703	17.0918	5	-6.95648	-0.0450635	-11.5465	-5.13482
49.8974	1689.47	5	17.6813	9.99429	3.77358	-2.8794
2.94703	1797.66	5	5.46663	0.845737	-1.52289	-7.80558
1.92483	1796.71	5	-2.08388	-9.05761	7.26052	-7.69725
0.58824	1797.12	5	-8.79304	2.59372	10.5352	-5.13466
7.37135	1800.12	5.02463	6.36609	0.467753	-0.624853	-7.80541
8.40265	1801.06	5.04598	6.21183	0.465238	-0.474513	-7.80715
8.08095	1802.43	5.05354	5.31159	0.482295	-0.463561	-7.80464
6.73915	1802.83	5.02928	5.20507	0.606834	-0.287459	-7.80739
6.0279	1800.52	5.01221	6.58527	1.28609	-0.281224	-7.80684
5.7075	1801.89	5.01139	5.75862	0.937257	-0.619349	-7.80254
1.68894	1803.11	5	-2.08811	-9.04612	7.2739	-7.69733
4.3655	1802.3	5	5.16279	-2.48057	1.01585	-7.8095
1.06	1805.83	5	1.04655	-22.2683	-8.03634	-7.58697
0.74543	1807.2	5	7.94917	-28.9956	-12.7106	-4.9838
1.21719	1815.91	5	7.98354	-29.065	-12.7329	-4.9834
4.12826	1808.7	5	2.97236	-2.10971	0.751112	-7.81049
3.81811	1810.05	5	2.53582	-3.50075	-1.26803	-7.80861
1.76763	1808.15	5	2.17407	-13.3323	-1.77408	-7.69704
3.10422	1807.74	5	0.951441	1.51506	0.564857	-7.8062
1.45307	1809.51	5	32.2924	-5.11518	-12.22	-8.0846
2.47527	1810.47	5	3.74569	0.889752	-1.21999	-7.80427
9.23765	1834.95	4.81971	0.381252	0.86303	-2.12298	-7.80591
29.2025	1820.87	4.58985	-19.0525	17.3516	7.49134	-7.78012
28.1596	1821.78	4.49395	-43.0844	-4.6706	-16.7778	-7.74457
26.9203	1821.25	4.47545	-73.1239	0.0536802	-19.6736	-7.30761
10.0691	1799.3	5.04428	6.9446	0.3475	-0.0381584	-7.80634
9.0373	1798.35	5.02501	6.56865	1.20055	-0.0959309	-7.80504
9.35705	1796.99	5.01296	6.98864	1.60174	0.75694	-7.80549
10.5099	1808	5.217	2.28117	0.476829	-0.992767	-7.80711
9.48795	1807.05	5.15438	2.75529	0.550799	-1.19734	-7.80605
10.1883	1809.37	5.20917	1.40879	0.266757	-0.90504	-7.80749
8.8522	1809.77	5.14024	1.42642	0.843598	-1.1624	-7.80679
7.8292	1808.82	5.09145	1.91775	0.000881679	-1.20151	-7.80754
8.1504	1807.46	5.09868	2.6179	0.19655	-1.28184	-7.80727
14.1188	1798.1	5.0213	9.64414	-0.634239	1.85485	-7.80569
11.4149	1798.9	5.04652	7.69887	-0.726699	1.18561	-7.80444
19.5357	1796.55	4.7469	19.6296	5.03846	12.3959	-7.79259
17.8627	1798.28	4.94179	15.0927	-1.39858	3.31415	-7.7929
18.1811	1796.92	4.85917	15.7701	0.803455	8.26451	-7.79175
23.0802	1798.07	4.53644	75.5757	18.5923	5.48545	-7.6694
22.6957	1799.43	4.73347	36.7062	7.54126	-13.588	-7.84135
21.9624	1797.12	4.54411	41.2499	9.12731	20.4431	-7.70838
20.5974	1797.5	4.72493	29.8477	2.45814	11.3557	-7.77071
29.4662	1806.52	5.02618	14.0187	16.3507	5.08553	-7.80503
16.7856	1770.7	5.02359	-1.7	9.45995	-7.59688	-7.79786
19.1007	1771.27	5.03054	-19.1848	6.41824	-7.05703	-7.7875
18.1232	1770.28	5.03335	-4.35139	6.08412	-12.8027	-7.79172
16.452	1772.07	5.0108	1.71251	11.6479	-1.57498	-7.81908
18.7886	1772.64	5.01207	-12.6249	10.7567	2.71453	-7.82018
17.4586	1773.04	5.00212	-8.38248	5.43399	6.21865	-7.77259
0.0377962	1783.36	5	1.74227	-8.93979	-10.7086	-5.13562
2.71114	1782.55	5	8.61481	0.814527	-2.32	-7.80347
1.68894	1781.59	5	-2.00986	-9.12895	7.31208	-7.69728
0.352361	1782	5	-8.83899	1.54763	10.8111	-5.13549
1.45307	1787.99	5	32.3946	-5.20291	-12.2084	-8.08474
0.116482	1788.4	5	18.1344	9.37955	-2.9804	-2.87958
3.65466	1778.46	5	7.81109	-0.251007	-2.05307	-7.81278
2.63246	1777.51	5	0.158747	0.501511	-0.0531484	-7.80821
1.29587	1777.92	5	0.577184	-22.7518	-8.52645	-7.58571
0.98131	1779.28	5	7.98367	-29.0651	-12.7328	-4.9834
2.00351	1780.23	5	2.22439	-13.372	-1.73197	-7.69716
3.3401	1779.82	5	2.17363	1.03608	1.99637	-7.80822
26.8218	1762.5	5.05776	34.809	-15.7715	-3.41628	-7.75376
27.0225	1763.87	5.02488	8.95971	-17.916	7.48962	-7.81239
21.1731	1764.44	5.12096	77.3127	59.9718	-2.68095	-7.56884
19.7122	1764.83	5.0927	72.8507	16.3093	-9.01614	-7.6115
18.6007	1763.9	5.09924	53.08	-0.117799	4.67396	-7.71859
18.8856	1762.53	5.16827	45.8953	3.99838	16.8352	-7.72891
24.5062	1764.21	5.07426	32.7317	-14.4438	-3.26475	-7.44681
25.9766	1766.08	5.02493	45.4626	-4.47349	6.25805	-7.38687
25.8843	1764.65	5.03724	8.12213	-12.5268	26.249	-7.36757
16.5017	1755.56	5.4721	13.3632	6.91552	-5.65177	-7.81596
16.1717	1756.93	5.38032	-2.25041	8.21419	-4.99274	-7.80148
17.1852	1757.89	5.42472	-15.4196	13.9336	-0.702152	-7.77989
17.8378	1755.13	5.63545	13.9206	-1.64782	-7.93072	-7.77338
15.7701	1753.25	5.46634	12.3909	4.12206	1.54608	-7.8028
15.4616	1754.62	5.40602	9.5661	2.85858	-2.01846	-7.79152
14.1234	1755.04	5.29061	9.75573	5.21717	-0.777141	-7.8099
13.0838	1754.1	5.24006	8.09387	3.33067	0.709138	-7.80206
14.7265	1752.31	5.37931	8.8633	3.09898	2.69221	-7.80671
13.3885	1752.73	5.27137	8.14163	3.68833	1.72838	-7.8048
12.4721	1756.82	5.15885	7.00299	5.26806	1.45111	-7.8025
13.8116	1756.41	5.23383	5.46084	5.89003	-0.157941	-7.80491
14.8444	1757.36	5.26196	1.60914	8.46126	0.636176	-7.80057
13.9797	1761.45	5.07841	18.1693	2.37472	7.2371	-7.78385
14.5642	1758.73	5.19009	10.8468	10.4891	6.00795	-7.81255
11.2571	1762.28	5.03142	18.9954	1.81994	2.77838	-7.79908
10.6317	1764.98	5.0131	21.9297	2.11077	-0.824717	-7.79791
9.89945	1762.67	5.01914	17.8263	2.43375	1.09857	-7.79817
9.57835	1764.04	5.01192	19.638	2.2987	0.152481	-7.79396
13.6756	1762.83	5.04664	23.2526	1.04107	4.16846	-7.79261
13.052	1765.51	5.02143	26.6228	1.37212	-2.16727	-7.79647
11.9933	1764.58	5.01988	22.9739	-0.271618	-0.0533653	-7.78797
12.314	1763.21	5.03035	21.5452	0.593326	2.36785	-7.79494
16.8636	1765.65	5.04757	36.9958	-3.22844	-7.22266	-7.74908
17.2058	1764.29	5.06647	46.2113	0.782985	0.151806	-7.75722
16.1145	1763.37	5.06739	32.8084	-3.29512	6.79419	-7.77091
15.4838	1766.05	5.03411	34.8191	2.09853	-6.48092	-7.78732
14.4197	1765.12	5.03071	28.3026	-2.54735	-1.87323	-7.77298
14.744	1763.75	5.04426	28.5962	-0.476169	2.96335	-7.78758
16.4071	1762	5.11471	23.9084	-0.330716	14.6357	-7.76644
16.9455	1759.27	5.30626	8.23191	18.0487	11.4379	-7.8082
17.9889	1760.24	5.31358	2.56669	5.92158	22.9447	-7.73982
17.766	1761.62	5.18459	30.3885	6.38043	20.5132	-7.76922
15.6081	1759.69	5.1976	8.17842	7.30072	9.88209	-7.77182
15.3362	1761.06	5.12268	20.7508	7.68182	10.7805	-7.80359
22.6733	1782.85	4.23768	11.413	21.1356	-5.69887	-7.88603
22.2737	1784.2	4.08977	1.54046	18.8523	-4.6663	-7.78003
23.2096	1785.2	3.76678	-3.61566	11.083	-0.681817	-7.807
27.9855	1778.62	4.7197	15.7273	-6.9817	11.4534	-7.78071
26.9075	1779.5	4.601	16.4278	-10.2941	10.4683	-7.78713
21.3684	1771.85	5.0277	-39.4588	-44.2834	-10.1516	-7.32554
22.7545	1771.68	5.015	-20.8353	-14.3092	39.4867	-7.39708
23.341	1772.99	4.98567	-25.6456	29.9196	-11.0488	-7.43738
28.5911	1775	4.94006	30.3672	1.78338	-0.0457804	-7.77476
29.5301	1772.77	4.98414	15.494	-0.436632	-8.67665	-7.78403
29.7263	1774.15	4.96884	23.6079	-1.09067	-3.7856	-7.79663
22.0238	1753.79	6.18151	87.222	26.3789	8.24157	-7.56731
20.6224	1754.28	5.99219	70.408	12.8601	-4.33258	-7.68916
22.0878	1752.4	6.55861	13.2701	18.4289	7.3899	-7.68795
19.5131	1753.35	5.92943	36.5565	3.95197	9.96558	-7.73438
18.6751	1751.03	5.96951	1.75124	14.1681	7.51525	-7.80819
21.087	1750.16	6.80081	-38.771	5.03692	0.563188	-7.72042
20.9704	1751.53	6.51585	-1.8619	14.0617	14.9135	-7.78656
19.7108	1751.98	6.12063	0.554099	5.38295	14.6716	-7.76616
