30	4
38.6356	1008.96	4.97043	1.69909	4.61472	1.37146	-7.80776
39.9729	1009.38	4.9873	1.8805	3.15903	1.01966	-7.80592
42.7982	1000.11	4.99021	7.46048	1.89832	1.97315	-7.80705
7.99545	873.767	5.00854	0.087715	2.26457	0.879608	-7.80958
6.63275	874.08	5.00735	-0.0462287	1.5516	0.443775	-7.80542
3.63343	879.735	5	1.95417	-0.0729681	0.0499102	-7.80791
2.68017	878.714	5	0.143804	0.109893	-0.066302	-7.80958
4.99977	879.428	5.00452	3.18479	2.02274	1.17843	-7.80831
36.5463	908.357	4.94713	0.0646317	1.69972	-1.09998	-7.80907
6.665	836.796	5.00136	10.8791	3.2865	-1.63236	-7.8021
7.4893	834.125	5.00391	11.4612	2.72415	-1.32381	-7.80274
6.245	838.136	5.00045	11.043	3.81507	-1.20835	-7.79455
5.1488	833.42	5.00076	11.1839	3.98765	-1.05102	-7.79914
6.11635	834.439	5.00169	11.569	3.14049	-1.08057	-7.80522
5.69675	835.778	5.00085	10.7172	2.98153	-1.28836	-7.79589
4.32432	836.1	5	9.12005	-4.01484	2.57157	-7.81197
0.643985	823.277	5	9.3584	-31.1357	-10.1328	-4.98352
1.18844	825.636	5	9.3798	-31.1765	-10.1423	-4.9833
11.1817	822.083	5.03201	6.52777	3.57525	-0.222589	-7.80795
10.3682	824.762	5.02089	7.35009	3.22386	-0.170162	-7.80338
12.7026	825.464	5.02933	7.14235	3.60279	0.2685	-7.80313
11.7366	824.446	5.02811	7.30273	3.63194	0.0508456	-7.80896
12.1454	823.104	5.03451	6.40313	3.75938	-0.11749	-7.80314
9.2824	832.471	5.00901	11.0008	2.16852	-0.955186	-7.8035
5.57095	832.08	5.00117	9.616	3.63722	-1.17407	-7.80507
6.9428	831.768	5.00361	9.80801	2.94979	-1.11754	-7.80309
14.6337	827.508	5.031	8.55215	3.54852	1.31686	-7.80813
12.0442	831.834	5.01872	12.2933	2.27303	-0.500995	-7.80457
7.06805	810.606	4.99748	5.07442	1.94443	-1.07906	-7.80559
9.3942	811.304	5.00321	4.75457	2.39441	-1.36886	-7.8068
8.43335	810.285	4.99549	5.00274	2.45486	-1.39094	-7.80683
11.5912	820.743	5.03881	5.49359	3.23374	-0.680794	-7.80549
12.9568	820.419	5.05054	5.27965	4.23425	-1.17741	-7.8081
10.0787	817.362	5.03089	5.37392	3.18993	-1.28456	-7.80634
9.26305	820.042	5.02302	5.5192	2.96326	-0.815657	-7.80614
10.6292	819.722	5.0337	5.59403	3.45612	-0.765349	-7.80694
11.0405	818.382	5.0392	5.21799	3.10659	-1.28604	-7.80678
13.6347	814.037	5.06665	5.18731	2.63458	-1.45275	-7.80632
12.2698	814.36	5.04793	5.29454	2.5264	-1.13521	-7.80644
11.7196	812.001	5.02463	4.46253	2.31642	-1.38696	-7.80654
11.3079	813.341	5.03077	5.04769	2.57699	-1.09625	-7.80674
17.6059	821.812	5.06853	3.53059	10.4145	0.938554	-7.81402
17.9953	820.461	5.08367	-6.6448	7.98898	-5.90091	-7.79339
19.351	820.126	5.09096	-8.62211	12.0231	-12.5334	-7.79623
18.5593	822.845	5.06006	1.19905	1.85313	7.24572	-7.79544
28.8504	811.2	5.16389	17.8599	-0.854545	-2.64319	-7.79425
28.5369	809.834	5.17431	15.2354	0.829438	-6.56746	-7.79835
32.6983	806.016	5.01742	7.67517	2.3974	-2.54504	-7.80755
31.9721	808.331	5.05205	10.0826	1.63928	-3.23172	-7.80835
31.6631	806.965	5.03392	7.26888	1.61762	-3.16641	-7.79743
30.3178	806.564	5.04814	7.53567	6.69486	-3.7245	-7.81298
30.9337	809.279	5.0843	10.7163	-0.0528088	-4.15344	-7.79864
29.2873	807.521	5.10903	5.49929	2.54501	-7.37986	-7.78251
29.5837	808.889	5.1174	12.1219	2.35445	-6.24668	-7.80862
27.9484	807.114	5.20275	6.89615	12.0728	-10.1103	-7.80239
26.9136	808.075	5.32911	10.9089	0.077572	-16.5226	-7.75836
17.6082	809.373	5.1567	10.2132	-1.28863	-0.11271	-7.81206
17.1827	810.706	5.14712	3.10457	-2.77677	-3.9563	-7.79635
15.4564	799.951	4.99553	13.7034	-0.139996	-0.364927	-7.80605
16.8323	799.642	5.00998	16.0987	-1.81885	2.27098	-7.79732
17.8169	800.65	5.01845	25.1161	-2.77897	0.3572	-7.80097
12.694	800.592	4.979	8.39154	-0.168581	-2.08727	-7.80153
22.6103	802.15	5.44346	84.57	21.2073	2.99659	-7.56644
23.9786	804.466	6.37964	-54.0813	-17.2731	20.6982	-7.18997
18.7826	805.353	5.21999	-17.6521	3.54488	-5.76188	-7.75631
19.6989	802.667	5.17744	12.9783	-7.86844	-20.3569	-7.73074
24.4601	808.536	5.65161	57.7702	18.3731	0.221969	-7.73509
23.1346	807.956	5.90832	60.0412	6.50613	6.61813	-7.65462
23.1946	806.643	6.42513	-21.4401	-24.5337	3.13826	-7.14151
25.6036	807.647	5.60105	19.6591	0.697018	-21.8458	-7.69966
24.3449	805.832	6.41529	-69.5223	0.159574	-19.8481	-7.19241
25.488	806.278	5.84177	-38.6654	-5.66697	-12.5468	-7.64955
22.3001	810.743	5.39651	19.133	-18.6765	-8.99205	-7.46474
21.3604	809.716	5.44809	36.624	-6.35733	-11.3042	-7.84888
21.7644	812.053	5.31443	-29.1894	-10.475	-1.61395	-7.36348
20.435	812.404	5.27023	-15.208	-6.43543	-6.46871	-7.82688
19.9665	810.05	5.32526	30.5047	-0.108599	-11.8897	-7.7768
19.5025	811.379	5.26605	-0.287744	-1.3605	-15.2428	-7.77503
14.7301	818.75	5.07444	3.86711	3.09162	-2.91803	-7.80437
13.3666	819.078	5.05958	4.38531	3.73195	-2.05636	-7.80713
12.82	816.718	5.05923	5.86345	3.31048	-1.93143	-7.80736
12.4056	818.058	5.05288	4.93075	3.4465	-1.98588	-7.80534
14.5982	815.054	5.08537	5.82119	2.30537	-1.5631	-7.80664
14.1854	816.393	5.07729	6.02554	2.29082	-1.69292	-7.80373
15.1492	817.412	5.08622	7.20666	2.99108	-2.43657	-7.80932
15.9634	814.728	5.11152	5.99833	2.30675	-1.31119	-7.80761
16.9291	815.744	5.12261	7.00785	2.22941	-1.29923	-7.80716
16.5152	817.084	5.10525	7.48958	1.60281	-2.64297	-7.79872
10.0432	767.665	4.91085	-1.30177	0.80203	-1.66924	-7.80725
10.5842	770.026	4.89341	-1.68986	1.03367	-0.731901	-7.80448
9.6338	769.002	4.92459	-0.968378	1.2573	-1.09414	-7.808
11.1326	772.386	4.89081	-1.2045	0.754051	-0.155959	-7.80365
12.4911	772.067	4.82027	-0.952109	0.967883	0.781629	-7.81078
10.4802	778.753	5.00564	3.62069	-0.713411	-0.279629	-7.8077
13.4441	773.09	4.78618	-1.23041	0.0904872	1.57318	-7.80128
13.0485	774.428	4.85199	0.567507	-0.298041	1.30751	-7.80952
11.8438	778.434	4.99226	3.61424	-1.50567	-0.160582	-7.80585
12.2489	777.097	4.95645	2.81645	-1.07056	0.560944	-7.8073
8.4253	760.591	4.9587	2.22501	0.295611	-1.10139	-7.80683
8.0112	761.927	4.96548	1.85866	0.412778	-1.06403	-7.80657
11.1986	747.544	4.96356	8.53296	-1.00826	-1.36115	-7.80076
9.40775	749.193	4.97033	7.09672	-0.0801658	-2.0172	-7.80301
9.82915	747.857	4.97271	8.1846	0.0760042	-1.55676	-7.80867
8.7062	755.557	4.95998	2.73998	1.21677	-1.42229	-7.80693
7.8845	758.234	4.96863	2.15849	0.456683	-1.59107	-7.80653
22.9025	779.472	4.87345	-23.3317	-8.12581	-0.943888	-7.37292
22.1733	782.146	5.00927	12.0965	10.3575	-9.43643	-7.80137
23.5304	781.748	4.98692	10.1007	-16.3985	-21.9604	-7.89753
23.9439	780.424	4.93028	22.7889	-25.9625	-13.2777	-7.46173
4.60752	793.787	5	7.57984	1.51943	-1.61458	-7.80185
1.73733	790.722	5	33.8806	-6.4421	-9.41899	-8.08458
2.6906	791.745	5	5.78694	0.398821	-1.03872	-7.80627
13.9197	796.584	5.02738	6.61432	3.35727	0.859021	-7.81141
8.57145	789.131	5.03906	4.7133	1.51437	-1.57535	-7.8058
25.3318	784.844	4.91441	12.4298	-31.4137	-1.47689	-7.47954
26.4047	783.92	4.90936	-38.9201	-0.336433	-13.2418	-7.3484
30.5945	796.522	4.75076	-6.18644	0.271453	-9.70859	-7.78556
29.2733	796.126	4.58056	-7.64786	0.565975	-9.32373	-7.809
35.7331	786.647	4.91186	5.02932	2.54872	0.662655	-7.8074
35.0829	783.925	4.93089	7.19329	1.42983	1.21985	-7.80348
36.4286	784.327	4.94272	7.16294	1.70423	0.972767	-7.80856
36.7565	785.689	4.93591	5.6713	1.83073	0.657791	-7.80486
32.0269	786.81	4.82065	4.20607	4.37952	-0.279959	-7.81183
33.3713	787.207	4.8492	3.8537	2.4513	0.247072	-7.80468
34.0588	784.883	4.90212	6.02943	3.05994	1.35673	-7.80591
34.3894	786.245	4.88807	4.92071	2.92554	0.935859	-7.80749
32.7139	784.48	4.88784	5.64088	4.34511	2.04659	-7.80807
31.6999	785.447	4.8489	2.43901	4.47936	0.612094	-7.79722
21.0801	777.475	4.69251	36.833	0.656766	-10.5622	-7.76881
20.0655	776.504	4.59812	17.8683	-11.6	2.38661	-7.77563
22.8855	775.815	4.3496	65.3179	8.71571	11.731	-7.72176
24.883	778.288	4.77044	22.2498	15.5564	21.1033	-7.42685
23.4371	778.161	4.75132	27.3812	-14.8594	-5.89452	-7.45591
22.4848	777.141	4.61494	43.5564	-2.23391	-9.37943	-7.83568
24.4611	768.976	3.98538	-9.2547	10.8047	2.78263	-7.45925
23.2132	769.561	3.66874	4.02397	-40.1171	6.28532	-7.45048
22.2186	768.565	3.73711	-50.5519	-2.30507	9.50308	-7.30911
21.4542	771.2	3.57654	-1.25674	4.81862	-1.67113	-7.80185
21.0684	772.541	3.72652	-19.195	7.21103	-1.72299	-7.78267
15.9947	768.748	4.47715	-5.29198	2.22038	-2.68864	-7.80824
16.9221	769.777	4.33083	-8.26869	1.82392	-1.47681	-7.7929
28.9616	779.587	4.92418	27.3558	8.25963	1.67556	-7.78931
27.5908	779.189	4.88644	27.8811	23.2321	1.13942	-7.76452
30.0222	778.65	4.95603	21.4362	1.99575	-3.34906	-7.78902
29.5158	764.465	5.47618	-13.386	-0.924216	-0.214245	-7.80259
37.8723	758.139	5.1113	5.50417	2.78697	3.64793	-7.80983
38.208	759.5	5.13099	2.31999	2.85354	3.43978	-7.80358
39.5465	759.914	5.10001	2.8157	2.87744	2.37932	-7.80852
40.568	758.958	5.06403	3.59772	2.21906	2.32647	-7.80377
33.5122	760.594	5.34022	-2.66411	6.24382	5.26985	-7.80533
33.1643	759.234	5.28598	0.0557683	5.85133	7.12001	-7.80597
34.1741	763.341	5.38235	-6.37561	5.6111	1.49149	-7.79991
36.8264	764.151	5.25892	-2.30878	4.84083	0.399145	-7.80959
33.6462	772.106	5.17933	-0.478704	3.11612	-6.57617	-7.79879
32.3117	771.697	5.16635	-1.65138	3.51852	-5.46296	-7.80611
42.9334	758.417	5.02086	4.36111	1.49648	1.80813	-7.80455
41.9077	759.37	5.04119	3.76764	2.5972	1.88282	-7.80767
42.2319	760.733	5.0427	2.67471	2.70778	1.53144	-7.80639
43.5708	761.145	5.0199	3.09798	1.91675	0.789266	-7.80523
47.1963	766.05	5	0.313168	-0.542619	-0.00502449	-7.80916
48.8471	767.821	5	8.06081	-29.9935	12.381	-4.98384
48.5329	766.46	5	1.16758	-23.4611	8.13922	-7.58592
46.1741	767.003	5	1.45584	0.0609461	0.124986	-7.80681
41.5288	763.053	5.07137	1.0811	2.95819	0.34475	-7.80827
41.2105	761.69	5.07253	1.55076	2.5994	1.1332	-7.80713
38.8567	762.236	5.15378	-0.357314	3.78167	1.59533	-7.8062
39.873	761.277	5.10768	1.08852	2.95892	1.91047	-7.80681
44.8335	766.6	5.00903	2.64175	2.0642	-1.01984	-7.81038
43.4074	771.239	5.01936	3.26498	1.15657	-2.8861	-7.80918
42.3835	772.197	5.03048	3.37373	1.65866	-2.82231	-7.80371
47.4308	772.451	5	0.0280333	0.0544887	0.0915167	-7.80749
46.4086	773.404	5	3.50151	-0.231021	1.03165	-7.80667
45.0659	772.994	5	6.27096	1.83815	-2.11203	-7.8072
44.7503	771.633	5.00423	2.78467	-0.304778	-1.79112	-7.80521
36.3034	772.92	5.13715	4.2784	3.35114	-5.92134	-7.80908
34.1061	779.858	4.98828	12.9321	-1.09116	-0.945521	-7.79632
35.4574	780.252	4.98756	12.1584	0.40591	-0.700629	-7.80775
36.4969	779.308	5.00481	9.91906	-0.676384	-2.15765	-7.80087
36.1816	777.944	5.02803	9.94013	-0.0879103	-3.45502	-7.80487
34.8327	777.553	5.0375	10.7574	-0.0405598	-4.19653	-7.80194
33.7873	778.495	5.0138	13.6488	-0.129652	-2.95536	-7.80449
32.1302	776.737	5.03741	12.9638	0.849512	-6.91682	-7.79712
32.4345	778.104	5.01124	15.1427	-0.11553	-4.31599	-7.79759
33.9288	773.477	5.14187	5.29499	3.74027	-7.56708	-7.80824
34.5268	776.187	5.06938	9.22194	0.608057	-5.76555	-7.80051
35.271	773.874	5.12569	4.69596	1.77335	-6.72575	-7.79823
35.5678	775.241	5.08892	7.51999	1.40772	-5.913	-7.80689
32.8897	774.426	5.10706	6.27102	2.20111	-8.33005	-7.79308
33.1792	775.795	5.07457	10.3757	1.86059	-7.16041	-7.80546
38.3727	770.994	5.1318	1.02179	2.87726	-4.03703	-7.80133
41.0411	771.8	5.05753	3.61794	2.16269	-3.4597	-7.80969
40.7343	770.435	5.07691	1.65032	2.01114	-3.15276	-7.80303
39.3946	770.034	5.11737	1.61254	3.71024	-3.17439	-7.80998
41.6668	774.515	5.0262	4.88693	1.08265	-3.57318	-7.80474
41.9769	775.88	5.01538	5.27402	1.10604	-3.28448	-7.80643
43.3212	776.275	5.00597	5.0171	1.19922	-3.21374	-7.80298
42.6955	773.561	5.0193	5.25025	1.78438	-3.03507	-7.80634
44.3509	775.32	5.0028	4.99289	2.80627	-2.54273	-7.80795
44.0409	773.955	5.00546	5.19685	3.13429	-3.06576	-7.80329
40.9469	776.833	5.01679	5.82546	1.26345	-3.0808	-7.80584
36.12	766.486	5.28085	-2.72325	5.53591	-1.64634	-7.80917
35.1077	767.452	5.2997	-4.0711	4.22894	-2.94816	-7.80134
34.4845	764.708	5.36821	-4.75718	6.21336	-0.317264	-7.80851
35.8171	765.118	5.30642	-4.381	5.25932	-0.621095	-7.80066
38.8053	805.307	5.01822	6.33948	1.11227	-2.80483	-7.80524
39.8368	804.355	5.01675	5.91981	0.657022	-3.0352	-7.80616
36.0607	788.009	4.91145	3.52554	2.4157	0.674112	-7.80564
35.0423	788.97	4.88214	2.99457	2.81988	0.622572	-7.808
35.3685	790.332	4.89286	0.530476	2.75441	0.627456	-7.80613
24.6713	797.141	4.23551	-74.1891	-9.88877	-16.7212	-7.29666
24.3386	795.781	4.12423	-23.3117	-29.6699	28.8748	-7.42557
22.9493	795.652	4.29438	-16.0368	-10.5106	-13.549	-7.43218
49.7854	793.422	5	1.57589	-8.42936	11.0318	-5.1343
48.7631	794.375	5	1.18642	-23.5053	8.1538	-7.58566
49.0772	795.736	5	7.83383	-30.2694	12.6352	-4.98341
48.8426	789.337	5	7.80353	-30.2376	12.632	-4.98364
49.4712	792.06	5	-8.9968	2.18921	-10.7425	-5.13423
41.6692	796.03	5.01027	3.28634	1.92064	-2.72501	-7.80506
42.6936	795.073	5.00554	3.93441	2.47902	-2.13951	-7.80673
44.3486	796.835	5.00295	3.62346	2.87372	-1.78782	-7.80969
44.0373	795.469	5.00267	4.02873	3.30729	-2.24902	-7.80383
40.9561	798.352	5.01758	3.19197	1.80477	-2.82674	-7.80549
41.98	797.395	5.01224	3.15629	1.82087	-2.79008	-7.80828
43.3225	797.79	5.00721	2.96023	1.83567	-2.64304	-7.80285
37.0236	792.099	4.95036	0.909071	2.95232	-1.17617	-7.80828
36.7076	790.736	4.93189	1.13188	2.54908	-0.36578	-7.80767
42.3794	793.708	5.00262	2.83494	2.19749	-1.56429	-7.80564
43.402	792.75	5.00045	2.82404	1.92846	-1.68756	-7.80705
44.5072	786.751	4.99759	4.9865	2.27439	-0.532999	-7.80627
45.7689	792.193	5	5.44863	-4.20958	-0.80807	-7.80766
47.1123	792.605	5	4.29363	-0.327016	1.24396	-7.80754
48.1345	791.652	5	-2.40283	-8.52176	-7.06318	-7.69606
47.8204	790.29	5	2.05218	-12.9293	1.91962	-7.69654
49.3162	780.622	5	1.58057	-9.04674	10.8878	-5.13509
49.4756	770.546	5	-8.79691	1.58162	-10.7893	-5.1353
49.7897	771.907	5	1.58057	-9.04674	10.8878	-5.13509
26.9088	571.451	4.79094	26.844	19.1156	3.81354	-7.77643
27.2267	572.832	4.94116	21.0432	20.3924	-0.113107	-7.7775
28.5909	573.208	5.0602	20.8909	4.87563	0.0543279	-7.79386
48.8869	574.184	5	7.81479	-29.5679	12.7847	-4.98334
42.1774	572.154	5.02812	6.31351	1.35926	-1.12331	-7.80726
25.9509	517.804	5.47858	9.86911	-35.3928	3.67931	-7.47498
27.0282	516.9	5.38432	-42.6063	-5.74631	-9.53471	-7.3416
28.335	517.292	5.37878	-27.1221	-6.73336	-0.293086	-7.8111
24.7396	517.061	5.42829	-4.90558	14.3395	1.99752	-7.46839
15.9785	516.587	5.18543	4.27068	3.0292	-1.95095	-7.80475
19.616	430.098	5.84121	6.40669	8.89819	14.334	-7.79358
20.6232	431.099	5.80573	14.6198	2.34626	16.6518	-7.76433
20.0331	437.457	5.34924	25.9937	9.24962	-9.10259	-7.7742
19.078	436.422	5.30881	21.5341	1.7677	-4.37573	-7.78097
17.6943	436.73	5.26482	19.165	0.925181	-4.93336	-7.80499
17.2384	438.058	5.29346	4.49921	-0.303718	-7.35791	-7.7977
16.9006	443.097	5.5764	0.835019	-1.42661	2.03511	-7.80376
47.1566	577.452	5	4.4111	-0.0911253	0.957636	-7.8074
48.1788	576.498	5	-1.98338	-8.8693	-7.31248	-7.69679
47.8646	575.137	5	2.1419	-13.4681	1.8748	-7.69695
45.8133	577.041	5	5.63357	-4.01527	-1.1419	-7.80675
42.4196	578.551	5.01373	3.85816	2.18725	-1.00716	-7.80706
44.7873	577.995	5.00233	3.7368	0.220435	-0.965325	-7.80772
43.4447	577.596	5.00974	3.92443	1.13886	-1.28358	-7.80588
43.1285	576.232	5.01505	4.60321	1.15125	-1.34973	-7.80531
42.4966	573.518	5.02491	5.7836	1.10769	-0.876149	-7.8058
41.077	578.152	5.02791	3.79171	1.46942	-1.04447	-7.80668
40.0521	579.107	5.03128	3.66803	1.52127	-1.0742	-7.80716
39.8031	572.708	5.05854	6.10662	1.18757	-0.979896	-7.80715
40.8324	571.756	5.04373	6.18018	0.960106	-0.998301	-7.80575
38.1373	570.949	5.07503	6.89426	1.12091	-1.44437	-7.80634
38.4578	572.313	5.07613	6.3313	1.01465	-1.19882	-7.80489
31.3244	573.997	5.1677	11.499	-1.94987	0.0770863	-7.79273
32.6762	574.386	5.17263	10.394	0.81994	0.471412	-7.8108
33.706	573.433	5.14242	8.39354	-0.52301	-1.00405	-7.80012
37.0488	576.945	5.10403	3.92428	1.39297	-0.612384	-7.80567
38.3914	577.344	5.07347	3.99623	1.65965	-0.719202	-7.80729
38.7097	578.708	5.05468	3.62307	1.73459	-1.00198	-7.80737
43.3691	582.634	4.99343	3.66689	2.18323	-1.12976	-7.80606
42.7369	579.915	5.00521	4.18141	2.26271	-1.09337	-7.80526
46.683	586.167	5	4.4175	0.0547222	1.00111	-7.80602
35.066	595.325	4.89557	2.52316	2.54624	-2.31157	-7.80042
29.7531	593.677	4.64132	-13.5726	9.13649	11.2927	-7.77978
49.8296	578.27	5	1.58256	-8.40529	11.064	-5.13462
48.8073	579.223	5	1.18646	-23.5039	8.15387	-7.58567
49.1215	580.584	5	7.82218	-30.2789	12.6469	-4.98342
46.0532	540.409	5	7.16754	-4.46397	-1.15935	-7.80618
40.3139	477.944	4.98971	2.88597	2.89286	-2.93992	-7.80348
41.3364	476.984	4.99152	3.35894	3.27967	-2.44968	-7.80951
33.5142	481.008	4.94714	5.69065	1.10399	-6.88324	-7.805
36.011	491.838	5.08113	9.26808	-1.06119	-0.245308	-7.80966
31.8112	398.091	4.67503	5.03973	-0.466961	-5.8393	-7.78871
40.8816	378.075	5.02698	4.29813	0.641201	1.97623	-7.80559
0.69425	400.858	5	-10.4598	3.73418	9.82074	-5.13454
5.6052	384.819	4.99658	0.97792	0.779528	-0.558044	-7.80666
5.878	379.78	4.99552	5.66177	2.56326	-1.13803	-7.80191
6.29565	378.442	4.99443	6.53677	2.14088	-1.61295	-7.80558
6.01155	395.917	5.00993	2.31046	1.2084	2.41539	-7.80679
11.8609	393.349	4.95008	-1.15976	2.61797	3.05766	-7.80134
11.4654	394.691	4.9842	1.08778	2.81014	3.60852	-7.80988
0.829895	404.554	5	9.57522	-31.4638	-9.65921	-4.98397
1.2387	403.218	5	2.29556	-24.1271	-6.14652	-7.5861
2.6005	402.902	5	0.301414	-0.237531	0.156437	-7.80764
3.55376	403.925	5	6.0317	0.487208	-1.33563	-7.80646
9.2613	422.498	5.06567	-2.084	1.73353	1.00322	-7.80811
10.2078	423.527	5.09142	-2.80201	1.59761	1.4119	-7.8041
18.3865	425.366	6.13841	-9.37345	5.61931	0.107224	-7.80273
19.2972	426.41	6.30947	-12.1673	1.33189	3.87293	-7.79424
17.6404	428.05	5.7545	-8.81416	2.5202	6.18451	-7.7875
18.9545	427.742	6.08347	-11.0992	2.62835	4.86882	-7.80629
18.0373	410.582	5.25414	3.18214	1.19232	2.0869	-7.8039
19.4071	410.289	5.25091	4.58741	2.32023	4.77156	-7.81153
22.8964	426.749	6.97475	-2.78116	-30.6506	-14.3233	-7.86035
21.5576	427.108	6.77862	-2.36635	6.09335	-3.94778	-7.80796
20.6036	426.097	6.65319	-12.6532	-2.55034	5.47486	-7.77931
27.8011	428.442	5.95756	-21.8389	14.4063	7.37287	-7.78285
25.624	429.016	6.49508	-72.6643	7.57968	-18.7332	-7.27794
26.8274	429.426	6.05089	-42.6715	-3.47347	-13.7543	-7.71926
25.2424	427.671	6.76377	-11.814	-6.45286	9.92926	-7.41685
33.1403	425.052	5.25653	-2.37763	1.5476	-0.0863583	-7.80673
28.4604	388.146	4.05043	-30.3695	-7.07662	-0.255139	-7.80735
25.9956	383.588	4.43213	-5.77264	11.4322	-1.02319	-7.46989
25.3968	390.855	3.4421	-7.71821	-9.15504	41.8446	-7.41597
26.4053	389.962	3.6419	-5.23802	-21.9906	16.6035	-7.90022
45.8123	216.325	5	3.46874	-1.31315	-1.83302	-7.80757
4.13129	182.658	5	4.65057	-1.72282	4.46159	-7.8083
3.56989	267.26	5	2.25107	2.36781	2.56697	-7.80647
3.9787	265.923	5	4.60386	-0.0961699	-0.651558	-7.81031
15.7433	260.784	4.72139	2.99353	3.81676	4.96374	-7.80028
0.298717	290.378	5	3.23557	-10.1488	-9.84409	-5.13551
0.435939	281.65	5	3.03348	-9.90351	-10.3032	-5.13432
0.84475	280.313	5	-10.4203	3.69368	9.81012	-5.13453
0.30029	277.954	5	18.3787	8.97968	-2.28805	-2.87997
2.34376	271.27	5	0.220993	-0.308994	0.21171	-7.80771
0.98197	271.585	5	1.97835	-23.8132	-6.54056	-7.58609
43.3148	11.8133	5.01489	8.463	2.75969	-2.52099	-7.80243
38.2366	11.5642	5.06898	8.76357	2.88523	-2.5293	-7.80552
40.6183	11.0069	5.04395	8.22812	2.79732	-2.62981	-7.80484
39.2709	10.6125	5.06052	8.32986	2.72239	-2.77278	-7.80483
32.7614	14.9947	5.13008	6.60813	5.88811	-0.596688	-7.80434
30.7067	16.9248	5.19944	5.28833	8.26485	-2.9041	-7.80991
45.3757	9.89352	5	8.71915	-4.3065	-5.98154	-7.80457
48.0593	10.7012	5	-2.18235	-8.8222	-7.14729	-7.69678
29.6882	17.8934	5.24989	3.62322	5.49285	-5.28414	-7.80065
25.9493	23.1532	5.38933	-42.8384	-1.52854	-24.8161	-7.70977
26.9276	22.1572	5.34733	-16.2775	19.2496	0.876721	-7.79234
33.2696	6.28024	5.07839	7.27507	2.54644	-6.97645	-7.79838
34.304	5.32516	5.08819	6.59661	4.82036	-5.91148	-7.80903
30.783	0.399888	4.70495	-9.28923	8.59724	-1.23218	-7.78721
20.786	3.55954	3.85397	-44.8316	-2.51091	11.0846	-7.72455
29.0567	15.1469	5.21709	1.8489	12.0453	-0.369953	-7.81057
31.4168	14.5887	5.14843	5.8553	7.13344	0.579151	-7.80723
30.3986	15.5542	5.18962	2.39298	7.5966	-0.909312	-7.79661
28.0533	16.1264	5.29178	-3.45086	4.8717	-6.64606	-7.7947
28.3473	17.4947	5.32063	4.28971	4.98612	-6.41024	-7.80666
32.5253	8.59287	5.08009	12.4951	1.63393	-4.41703	-7.80464
32.837	9.95937	5.0909	12.1692	0.733491	-2.31822	-7.7963
34.5051	11.7214	5.09843	9.39744	2.37952	-1.22926	-7.80018
35.8531	12.1192	5.08987	9.55824	3.3341	-1.72281	-7.80719
33.79	14.0381	5.11086	7.96995	4.62627	-0.556457	-7.80368
33.4693	12.671	5.10626	9.90826	4.3719	0.00241297	-7.80929
49.7101	12.4718	5	1.60169	-8.68517	10.9389	-5.13477
47.8248	4.30105	5	-2.21828	-8.80119	-7.01171	-7.69681
49.1614	4.70993	5	-8.87235	1.88358	-10.7582	-5.13484
49.8695	2.39514	5	18.1067	9.35659	2.95156	-2.87957
46.8025	5.25413	5	5.04725	0.0589267	1.4637	-7.807
44.7475	7.17237	5.0059	7.45675	4.22166	-2.57256	-7.80674
47.8424	1064.95	5	-2.14524	-9.16457	-6.96538	-7.69706
47.5283	1063.59	5	5.00684	-0.212784	1.5082	-7.80451
40.5129	1060.17	5.01269	2.32866	0.333848	1.80731	-7.80484
41.8511	1060.58	5.00762	2.35032	0.588475	1.58465	-7.80775
34.2058	1049.45	5.07382	10.6876	-0.60861	-1.2001	-7.80514
32.8551	1049.06	5.07687	11.0548	-0.145489	-1.42425	-7.8024
35.1732	1053.52	5.05858	8.64479	-0.771063	0.775313	-7.80714
34.5297	1050.81	5.06878	10.1358	-0.935161	-0.49425	-7.80191
36.8487	1055.28	5.04543	6.77744	-0.817198	1.25918	-7.80809
35.5033	1054.88	5.05354	6.95827	-1.15412	1.19913	-7.8045
41.3584	1047.8	5.02765	7.91077	0.217048	-1.05882	-7.80588
40.0121	1047.4	5.04006	8.17488	0.0472395	-1.40924	-7.80485
39.2232	1054.73	5.03233	6.79246	-0.221235	0.855583	-7.80772
40.2544	1053.78	5.027	6.70833	-0.749111	0.637517	-7.80463
37.8787	1054.33	5.04171	6.7384	-0.922824	1.14746	-7.80395
34.7725	1062.21	5.00846	1.46119	-1.0525	2.18875	-7.81
35.7914	1061.26	5.01766	1.72205	-1.07974	2.15777	-7.80331
37.8227	1059.35	5.02571	3.73082	-0.647473	1.7806	-7.80949
38.5206	1057.04	5.03136	5.37321	0.135714	1.53475	-7.80843
38.8476	1058.4	5.02543	3.68704	-0.0683492	1.78788	-7.80428
37.1776	1056.64	5.0398	5.62011	-0.79644	1.35946	-7.80422
38.0953	1065.75	4.97185	-1.56419	0.15065	0.47369	-7.80615
21.324	1062	5.05379	2.83796	-21.3115	-9.26614	-7.92391
22.2612	1063	5.05594	-14.5024	-15.3005	-23.3941	-7.481
25.935	928.006	5.05624	42.3266	5.60051	-42.9003	-7.63048
25.0749	930.312	5.19162	87.5481	5.63077	-8.1009	-7.61294
24.755	928.935	5.09249	78.4375	15.1314	-27.8298	-7.60908
24.0952	924.826	4.93159	-15.834	-8.27634	7.19457	-7.43611
24.4937	926.188	4.96685	-76.883	6.81963	-27.1373	-7.29821
25.7655	926.62	4.99825	-43.29	-2.72595	-26.8138	-7.70675
24.1587	919.653	4.80689	3.08615	-17.7453	21.1336	-7.90258
10.3702	936.597	4.93455	10.4638	2.56827	-1.70107	-7.8065
10.9975	942.667	4.8228	2.26414	4.22662	-0.117909	-7.80792
12.7825	941.022	4.75589	3.11698	4.76314	-0.65563	-7.80854
11.4161	941.329	4.81788	3.08036	3.90412	-0.706892	-7.80518
29.1388	973.02	5.15223	-6.8523	2.98792	-0.961901	-7.79669
18.3465	956.017	4.58868	2.35119	5.84789	12.4009	-7.80283
35.7586	0.657362	5.04911	1.71188	7.02058	-1.87073	-7.80975
38.9574	9.24621	5.06809	8.04984	2.80084	-3.03382	-7.80463
37.6103	8.85156	5.08364	8.25827	2.75082	-3.31577	-7.80508
37.2998	7.48481	5.09023	7.39386	2.91888	-3.73239	-7.80336
39.9902	8.29298	5.05816	7.76544	3.02039	-3.02381	-7.80598
39.7703	1.87954	5.05778	4.78427	4.6786	-2.24138	-7.8089
15.0938	6.1663	4.68724	8.03235	-2.3718	0.141413	-7.80733
17.4442	6.84878	4.63041	15.2898	-3.35778	-0.289988	-7.80859
16.4592	5.85031	4.60341	9.23172	-3.31164	1.43114	-7.80204
12.0974	11.8318	4.9181	7.03998	0.538723	-2.72131	-7.8087
13.463	11.5051	4.89958	7.08364	-0.764445	-3.06264	-7.80181
11.788	4.46742	4.78748	2.99878	-1.73528	1.12267	-7.8061
12.7562	5.47733	4.76697	4.83564	-1.69385	0.46181	-7.80768
12.1862	3.12962	4.73274	1.43264	-1.54938	1.52422	-7.80561
13.5442	2.81475	4.62806	1.63254	-1.36061	2.02935	-7.80823
0.87416	31.8319	5	9.47907	-31.1901	-9.93156	-4.9836
3.59802	31.2031	5	16.1539	0.0645266	-3.81354	-7.80626
0.056833	34.5053	5	18.3825	8.98116	-2.2937	-2.87985
1.41862	34.191	5	33.8728	-6.27791	-9.53877	-8.08475
1.82743	32.8542	5	2.28287	-13.0395	-0.79829	-7.69675
3.18921	32.5398	5	2.30164	2.51654	2.25601	-7.80759
0.738515	28.136	5	-10.4239	3.59428	9.84549	-5.13469
2.1003	27.8217	5	-3.11202	-7.72092	7.36846	-7.69668
3.05357	28.844	5	13.7024	-0.0381723	-2.59866	-7.80394
0.329703	29.4729	5	3.14479	-9.85233	-10.1213	-5.13471
2.64476	30.1808	5	0.355844	-0.173544	-0.12262	-7.80742
1.28297	30.4951	5	2.11177	-23.8703	-6.35313	-7.58611
4.43784	28.5245	5	16.4861	-8.38755	3.4392	-7.79873
4.83655	27.202	5	13.12	-8.33618	2.94045	-7.80567
1.96465	24.1259	5	2.33609	-13.166	-0.759409	-7.69672
1.55584	25.4627	5	33.8412	-6.25248	-9.55787	-8.08469
0.194054	25.777	5	18.3817	8.98115	-2.29353	-2.87985
1.42019	21.7668	5	2.11515	-23.8042	-6.37359	-7.58615
0.466924	20.7446	5	3.14153	-9.85203	-10.117	-5.13469
1.01138	23.1037	5	9.46055	-31.1569	-9.9809	-4.98362
0.875735	19.4077	5	-10.4424	3.59053	9.85421	-5.13463
1.69306	16.7344	5	33.7429	-6.15413	-9.62128	-8.0847
7.44955	22.8774	5.0071	10.9706	3.53453	0.899148	-7.80624
2.23752	19.0935	5	-3.27774	-7.55705	7.36492	-7.69664
2.64633	17.7567	5	5.82767	0.195484	-1.30863	-7.80383
0.0596875	9.65722	5	3.1361	-9.88145	-10.1232	-5.13469
6.3314	5.72899	4.97924	2.74716	0.620796	0.697039	-7.8089
9.46385	3.76705	4.88399	1.68297	-0.903677	1.12913	-7.8072
10.4262	4.78179	4.85542	2.82608	-1.08901	0.82794	-7.80757
8.10165	4.0797	4.93435	1.63862	-0.345905	0.912119	-7.80724
7.69565	5.41731	4.95057	2.73948	-0.322969	0.827806	-7.80623
6.8858	8.08484	4.97454	3.55231	0.460504	0.383067	-7.80672
28.2496	22.5614	5.20094	-8.36139	10.035	-9.05771	-7.77441
13.7222	18.8993	5.04623	-0.137289	5.46158	-2.66456	-7.80183
8.5307	15.1556	4.97757	5.70231	2.76012	-1.54749	-7.80761
8.1174	16.4954	4.98612	5.41559	3.12797	-1.13089	-7.80628
14.4307	12.5162	4.91995	8.23042	0.081362	-3.89259	-7.80769
14.0084	13.8517	4.95066	7.05058	-0.271474	-4.58464	-7.79835
15.6467	20.9309	5.15472	-0.268432	8.89569	0.730016	-7.81485
17.2509	24.3143	5.19487	12.2549	5.00067	10.6649	-7.77987
16.2555	23.3091	5.17112	9.57572	8.57856	8.619	-7.81081
16.606	21.9516	5.21799	-4.8826	6.47151	4.56028	-7.78827
9.5634	28.5946	5.0121	18.91	1.95605	-0.285752	-7.80043
10.1991	22.2377	5.02032	8.48226	3.72698	1.3914	-7.79936
10.9443	28.2858	5.01837	19.5033	0.864533	0.314021	-7.794
11.3556	26.943	5.02671	17.898	1.57392	1.54212	-7.79862
12.2593	40.3798	4.94514	7.73993	5.38826	-2.93568	-7.80344
11.834	41.719	4.95492	7.18771	5.76138	-2.22172	-7.80759
13.107	37.6932	4.93911	11.2192	5.34048	-4.76809	-7.80159
15.8754	37.0667	4.87025	11.7398	5.90626	-5.07175	-7.80368
15.9451	40.7745	4.79999	5.12871	8.13131	-3.26496	-7.80811
14.5785	41.0922	4.87305	5.38404	6.47623	-2.80651	-7.80143
13.6285	40.0603	4.91206	7.47404	6.17456	-3.4142	-7.80603
14.0612	38.7224	4.9079	8.92156	5.79163	-4.17503	-7.8032
15.4313	38.4019	4.86321	8.5023	6.08367	-5.00438	-7.80269
16.3773	39.4355	4.79466	5.89575	7.50584	-4.98861	-7.80039
16.1229	28.3219	5.04792	30.837	3.25683	-0.180007	-7.78818
16.8879	25.6681	5.1299	21.4857	4.01644	7.93373	-7.79468
17.9089	26.6549	5.12132	29.4978	6.00182	4.56376	-7.78675
17.5167	28.0086	5.06841	32.9199	4.13816	1.28755	-7.77125
26.6464	27.1988	5.03323	46.2158	6.06473	-0.307734	-7.75121
26.1005	24.5311	5.21598	33.96	5.32454	-40.2094	-7.66215
19.4899	33.7753	4.83777	-7.14974	1.71555	-0.0316996	-7.82775
25.2269	31.8391	4.86169	26.623	15.6552	-2.98045	-7.77922
23.866	31.4205	4.88612	22.1413	-2.83401	11.2858	-7.92123
0.60129	36.8643	5	-10.4211	3.59372	9.84505	-5.13469
0.99525	159.769	5	2.29334	-24.1266	-6.14545	-7.58611
0.58644	161.105	5	9.57409	-31.4649	-9.66041	-4.98398
0.0419813	158.746	5	3.25152	-9.56503	-10.0261	-5.13471
0.450791	157.409	5	-10.4573	3.73393	9.82033	-5.13454
3.31031	160.476	5	2.69506	0.437768	-0.582151	-7.80808
4.67601	160.161	5	3.13483	0.744701	-0.592003	-7.80448
6.042	147.426	4.99868	3.03644	1.53339	0.376619	-7.80568
1.26812	154.736	5	9.37885	-31.1774	-10.1433	-4.9833
1.67693	153.399	5	1.99367	-23.8593	-6.55977	-7.58577
3.03872	153.085	5	0.188117	0.384521	0.0661943	-7.80754
5.77045	152.456	5.00065	3.35855	1.27455	0.322678	-7.80701
24.4383	133.268	5.3586	34.6905	0.180487	-5.29523	-7.85717
25.3657	134.316	5.32139	18.6043	-13.1942	-3.27396	-7.46669
22.5729	134.899	5.13236	-1.90771	2.02402	-12.4437	-7.78262
23.0428	133.572	5.21282	28.9878	4.01495	-7.38005	-7.78311
23.4896	135.941	5.1206	-17.9343	-4.90265	-2.58398	-7.82596
24.8222	135.621	5.19428	-32.5089	-5.34963	3.2713	-7.36414
3.30873	172.901	5	1.57246	1.96204	1.76668	-7.80558
4.26587	173.927	5	1.12161	-0.62416	2.65103	-7.80697
3.17151	181.629	5	2.88182	3.2714	3.07239	-7.80568
1.80972	181.943	5	2.18633	-13.1333	-0.966152	-7.69624
5.6273	173.612	5.00281	-0.14851	1.07237	0.266751	-7.80938
9.73075	160.237	5.04534	3.18161	0.399805	-0.744201	-7.80842
2.09145	102.366	5	-3.38089	-7.4468	7.41572	-7.69671
3.04472	103.388	5	1.49449	0.20724	-0.361041	-7.80741
2.90749	112.117	5	4.35666	0.169781	-0.837297	-7.80885
3.72901	109.442	5	5.2569	0.243329	3.95881	-7.80401
4.68492	110.477	5	4.88509	-4.15755	5.44805	-7.8036
4.27599	111.801	5	5.31373	-6.67532	2.71516	-7.80895
3.18037	107.084	5	2.32814	2.40481	2.49198	-7.8066
3.58918	105.748	5	1.22378	0.236051	-0.272048	-7.8063
1.27412	105.04	5	2.1097	-23.8695	-6.35186	-7.58612
2.6359	104.725	5	0.0218429	0.155828	-0.0188531	-7.80738
0.72966	102.68	5	-10.4239	3.59357	9.84581	-5.13469
0.32085	104.017	5	3.14527	-9.85221	-10.1205	-5.13471
0.183629	112.746	5	3.14633	-9.85563	-10.1227	-5.1347
1.13689	113.768	5	2.09942	-23.9201	-6.3289	-7.58617
0.728085	115.104	5	9.60932	-31.101	-9.7663	-4.98389
4.82275	114.159	5	7.21003	0.765976	0.408991	-7.80256
3.45195	114.476	5	5.70817	0.393017	-1.42267	-7.80751
5.78045	115.184	5.00304	5.77236	2.17281	0.317208	-7.80701
1.817	119.823	5	-3.43754	-7.46257	7.34421	-7.69671
2.77027	120.845	5	4.927	0.102417	-1.18301	-7.80659
4.14004	120.528	5	5.48724	-3.23807	0.832383	-7.8061
5.6403	123.911	4.99779	3.37074	1.33932	-0.787479	-7.8076
7.0054	123.596	4.99388	3.37267	1.82514	-0.936294	-7.80724
5.09695	121.55	4.99954	3.41911	1.62945	-0.412483	-7.80899
4.68498	122.888	5	5.9255	1.57205	-1.23541	-7.80374
7.41945	122.258	4.99403	3.6327	1.96566	-0.790706	-7.80795
6.4622	121.236	4.9976	3.44603	1.30822	-0.416912	-7.80393
13.4231	123.36	4.97045	1.82585	2.72877	-0.454431	-7.8108
23.7214	115.885	4.95703	21.2659	-19.5951	15.547	-7.46877
24.0398	117.236	5.03807	4.72946	-9.30239	23.6178	-7.89358
18.0573	124.785	5.00874	1.63461	-0.0159028	2.35241	-7.80772
16.1419	122.736	4.97928	-3.30167	0.581761	0.223428	-7.80329
17.9184	121.094	4.99909	-4.28674	-1.32513	1.34292	-7.80089
17.5011	122.425	4.99566	-4.19122	-1.77628	-0.0814984	-7.80889
18.4511	123.444	5.01748	-4.85101	-1.34385	-0.712412	-7.80534
20.3824	125.484	5.10461	7.1442	-13.0689	6.81429	-7.78495
16.9424	116.361	4.96904	22.8706	0.22925	-5.86008	-7.80145
14.5889	115.657	4.99431	15.9996	-1.38299	-2.36182	-7.80924
15.9674	115.35	4.9757	17.4839	-4.56172	-1.90405	-7.78519
16.9866	120.053	4.98461	0.557878	4.51497	-4.07018	-7.81159
17.4226	118.719	4.98139	-0.688773	3.06402	-8.88073	-7.80067
16.4829	117.689	4.97784	7.51681	-1.42047	-8.88944	-7.79228
9.59	106.87	5.01657	1.46599	2.46138	2.53752	-7.81049
10.5459	107.894	5.01456	1.07986	1.43498	3.42081	-7.80149
7.82295	108.518	5.02166	2.75003	1.64423	2.21576	-7.80876
8.22545	107.178	5.02005	1.40665	1.65318	2.22757	-7.80397
16.5486	109.022	4.70371	2.41212	4.23444	10.5037	-7.80744
17.5267	110.036	4.67447	5.14905	0.854112	12.4951	-7.77845
8.93115	113.235	5.02391	6.03733	-0.540872	1.47794	-7.80462
7.56285	113.54	5.01541	5.77393	0.450747	1.01731	-7.80797
7.0113	111.183	5.01578	3.57742	0.146676	1.92719	-7.80336
6.60165	112.521	5.01125	4.48329	-0.0500522	1.72546	-7.80475
13.6128	114.65	5.00711	11.868	-3.7373	0.247065	-7.79482
14.0254	113.313	5.00058	12.1135	-2.11661	2.80561	-7.8058
10.4482	116.601	5.00995	8.59207	-0.521362	-0.893916	-7.80969
11.2677	113.945	5.02447	8.33314	-1.90768	1.40562	-7.80133
9.4819	115.586	5.01514	7.36801	-0.906751	-0.0939067	-7.80195
9.89765	114.25	5.02281	7.81685	-0.466693	0.799096	-7.80817
11.8182	116.29	5.00956	8.68118	-1.97372	-1.36942	-7.79824
12.2397	114.955	5.01603	11.1659	-1.28501	0.00900578	-7.80946
15.1927	109.326	4.8536	1.45585	0.571972	8.6176	-7.79049
14.8129	110.668	4.93122	6.76757	-0.11264	7.42382	-7.80654
11.9098	107.586	4.98227	1.27983	2.91037	3.98135	-7.81116
14.6051	106.96	4.80384	-4.68818	2.81662	4.56466	-7.79307
14.2296	108.304	4.8843	1.39057	3.642	6.33533	-7.81109
12.868	108.61	4.96579	0.974317	1.20769	5.31047	-7.79749
21.5688	104.062	3.60903	-49.5402	-5.62404	8.51997	-7.31577
0.72366	152.377	5	9.35939	-31.134	-10.1318	-4.98351
1.13247	151.04	5	2.24022	-23.5222	-6.26075	-7.58647
9.5909	144.122	4.98745	2.02818	1.90772	0.038495	-7.80848
10.5454	145.146	4.97761	1.71144	1.56819	0.286055	-7.80577
6.5907	149.786	4.99827	2.40952	0.956956	0.53543	-7.80724
6.9996	148.447	4.99677	2.76098	1.17482	0.697021	-7.80592
0.725235	139.953	5	-10.4387	3.69098	9.8105	-5.13432
2.08702	139.638	5	-3.24276	-7.19691	7.48396	-7.69613
4.95321	142.703	5	4.78443	1.1078	-0.701075	-7.80562
3.04029	140.661	5	4.32556	-0.155813	-0.65023	-7.80632
3.58475	143.02	5	4.29386	0.524897	-0.994304	-7.80704
2.63148	141.997	5	0.135321	-0.231393	0.227529	-7.80762
3.31316	135.628	5	0.831582	1.14907	0.869142	-7.80754
7.6826	142.075	4.99739	2.01563	1.68368	-0.334723	-7.80723
11.6476	125.012	4.97186	2.79445	1.8793	-0.162589	-7.80961
10.2828	125.326	4.9776	2.81989	0.956912	-0.0521182	-7.80593
14.6308	144.2	4.91261	-0.160827	2.79562	-0.689002	-7.80559
13.68	143.175	4.94478	0.705182	2.30116	-0.831457	-7.80799
21.2119	135.219	5.06212	-0.00224548	3.29328	-5.27272	-7.80627
20.7981	136.558	5.01292	1.94256	5.05045	-1.08756	-7.81092
3.85919	125.564	5	3.00685	-0.14102	-0.446268	-7.80981
0.590865	123.833	5	9.3594	-31.134	-10.1319	-4.98351
3.31473	123.204	5	5.115	0.150636	-1.41087	-7.80773
2.90592	124.541	5	0.159524	0.365089	0.0224845	-7.80706
1.54414	124.855	5	1.99365	-23.8599	-6.55959	-7.58577
0.999675	122.496	5	2.24015	-23.5223	-6.26085	-7.58646
2.36146	122.182	5	0.0331844	0.0206086	-0.21994	-7.80754
2.09745	52.6698	5	2.22151	-13.0499	-0.836123	-7.69671
3.45923	52.3556	5	1.62121	1.89065	1.79179	-7.80703
17.5622	47.9169	4.84776	5.27553	7.2003	6.22924	-7.80958
17.9443	46.5727	4.73277	-2.05136	5.90182	3.19971	-7.79592
12.0933	49.1365	5.02383	5.84	3.17868	1.44642	-7.80369
12.9144	46.4615	4.98116	5.60075	5.65671	1.1747	-7.81034
16.4658	43.1555	4.75563	2.80794	8.15894	-0.594913	-7.80895
17.4027	44.1974	4.68016	0.664654	6.03028	1.46184	-7.79971
16.9995	45.5372	4.7717	0.629472	6.29082	1.86952	-7.80907
15.6377	45.8434	4.87876	1.33752	5.57254	2.10358	-7.79896
3.052	41.2681	5	0.0967409	-0.0360116	-0.204786	-7.80687
18.4122	57.6531	5.11124	10.3793	0.0845275	2.03869	-7.80593
19.7874	57.3608	5.09606	11.7135	0.196235	3.95661	-7.80382
17.4485	56.6318	5.09143	9.59193	1.32643	1.36735	-7.80514
17.8647	55.2937	5.06503	8.61012	1.59879	1.37098	-7.80229
19.2376	54.9948	5.03811	8.58049	4.52804	1.18618	-7.80775
20.1946	56.0231	5.05007	5.31658	0.864072	5.08796	-7.80111
6.74625	54.0834	5.01059	6.41603	1.95101	-0.459806	-7.80476
8.1145	53.7711	5.02124	6.57522	1.75404	-0.151343	-7.80665
7.2938	56.4406	5.01527	6.10203	1.39274	-0.108635	-7.80735
6.3309	55.422	5.00736	6.47468	2.00408	-0.481793	-7.80006
9.0768	54.7906	5.03036	6.50373	1.41348	0.060418	-7.80635
8.66155	56.1285	5.02763	6.1064	1.22289	-0.163557	-7.80554
23.917	56.372	4.97357	12.1385	-14.403	-14.9402	-7.91601
18.7553	43.8956	4.48406	0.488087	5.36979	2.53416	-7.80385
19.1574	42.5566	4.39835	-1.90405	6.4816	3.49225	-7.79226
19.8864	48.6535	4.68692	7.78777	12.4123	12.8506	-7.80042
20.0211	39.8483	4.36555	-1.03553	21.8851	-6.09034	-7.80014
20.4742	38.5024	4.42001	-2.62514	18.3216	-16.5067	-7.76332
4.418	65.8003	5	4.05617	1.46862	-1.23781	-7.80605
3.87411	63.4412	5	2.33315	-4.42414	-2.19763	-7.80928
4.82153	64.4598	5	0.150801	-0.589595	-2.81205	-7.8099
2.50468	63.7572	5	4.42213	0.226382	-0.994832	-7.8049
2.09588	65.0939	5	-3.31567	-7.51621	7.38811	-7.69667
3.04914	66.1162	5	4.21009	0.17424	-0.943773	-7.80506
20.4986	70.7615	6.06865	-12.8108	1.67549	-12.8154	-7.77885
20.9918	69.4473	5.98531	16.9991	3.85375	-7.37502	-7.79026
7.6845	67.5306	5.0224	0.236544	1.58581	-0.575511	-7.80745
8.22555	69.8937	5.02448	-0.361996	1.6047	-0.0615789	-7.80552
7.2747	68.8683	5.01482	0.2691	1.68634	-0.395371	-7.80825
11.4079	55.5011	5.0533	6.8915	1.15707	0.368845	-7.80688
12.7775	55.1953	5.06365	7.12845	0.922079	0.726541	-7.80511
13.3216	57.551	5.08136	6.97279	0.298545	-0.196745	-7.80343
13.7406	56.2146	5.07572	7.76877	0.775331	0.528853	-7.80718
19.4259	62.3676	5.31901	-4.71618	4.2322	-6.14013	-7.80128
20.3284	59.7094	5.18144	17.1515	-0.569325	-2.02108	-7.78697
18.9474	60.0081	5.18863	15.0152	0.81849	-3.16672	-7.80951
18.4936	61.334	5.24232	2.25614	-0.261212	-5.81119	-7.79944
11.2376	64.2249	5.09821	2.22863	1.35218	-1.00856	-7.80794
12.6014	63.9108	5.13787	2.16807	1.1965	-1.20745	-7.80636
10.1653	59.506	5.05165	5.16452	1.08802	-0.870234	-7.80817
10.9912	56.8384	5.05295	6.33586	0.864421	-0.0955862	-7.80467
9.62295	57.1481	5.03881	6.17002	1.22662	-0.247784	-7.80779
9.2064	58.4853	5.03685	5.02056	0.977396	-0.73763	-7.80522
11.5323	59.1944	5.06975	5.23071	0.597089	-0.936039	-7.80431
11.9523	57.8584	5.06775	6.75942	0.942292	-0.337898	-7.80824
13.876	84.7576	4.96585	6.76347	1.51723	0.272536	-7.80443
17.3199	90.1848	5.05073	12.8585	1.17	0.432949	-7.80692
19.1037	88.5441	5.15178	11.0953	3.24086	4.72125	-7.80329
18.6959	89.8849	5.10118	14.1673	1.71058	2.03923	-7.79784
0.185201	100.321	5	18.383	8.98125	-2.29391	-2.87984
4.55135	94.3441	5	4.60572	-1.08575	-0.589024	-7.80561
6.19335	88.9963	4.99807	6.39855	1.58277	-0.591199	-7.8084
7.01545	86.3283	4.9912	5.9743	0.823856	-0.0254897	-7.80472
5.6473	86.6384	4.99735	5.87804	2.12475	-0.105486	-7.80678
5.23165	87.9766	4.99882	5.9165	1.95433	-0.440546	-7.80289
7.978	87.3467	4.99003	6.61559	0.827229	-0.279584	-7.80748
7.56145	88.6839	4.99511	6.45627	0.700983	-0.534287	-7.80469
3.4548	89.6278	5	1.18486	1.4583	1.33295	-7.8067
2.91034	87.2686	5	0.117228	0.0375839	-0.0203243	-7.80783
3.86362	88.2909	5	4.12275	0.119963	-0.864529	-7.81075
8.24585	82.3254	4.97508	5.05049	0.5781	1.19663	-7.8061
7.4295	84.9906	4.98561	5.80996	0.992803	0.320439	-7.80781
8.1013	78.6298	4.9822	3.59781	0.910399	1.43539	-7.80627
7.69295	79.9682	4.98062	4.40531	0.865891	1.33246	-7.80694
6.32595	80.2757	4.98958	4.34551	1.43918	1.09282	-7.80716
7.1431	77.6081	4.9894	3.14934	1.22504	1.40992	-7.8072
5.36735	79.2535	4.99554	3.74479	2.04637	1.12639	-7.80706
5.77675	77.9146	4.99528	3.06822	2.15165	1.25927	-7.80459
12.842	71.317	5.16782	-2.60842	2.02046	0.26106	-7.8045
13.6623	68.6347	5.23165	-1.73385	1.19558	-1.32351	-7.80535
11.2377	76.6745	5.0152	2.55613	1.28705	2.27415	-7.8089
12.1984	77.6942	5.01619	3.19233	0.486864	2.56171	-7.80488
10.6827	74.3106	5.03817	0.757135	2.05266	1.77039	-7.80971
12.4428	72.6568	5.12735	-1.15777	2.48461	1.20846	-7.80972
11.0825	72.9707	5.06703	-0.952725	1.84606	1.30644	-7.80372
13.3925	73.6835	5.16129	-1.98548	1.83603	1.96912	-7.8013
12.9996	75.0243	5.10624	0.784157	2.1535	2.73371	-7.81037
11.6374	75.3347	5.04781	0.679079	1.35101	2.296	-7.80316
1.68578	78.8547	5	2.1156	-23.8019	-6.37346	-7.58617
3.04757	78.5403	5	0.223559	0.057793	0.0936969	-7.8091
4.00083	79.5626	5	2.39624	-0.000573537	-0.0179246	-7.80827
1.27697	80.1915	5	9.48349	-31.1215	-9.95246	-4.98365
2.7747	83.5728	5	3.41236	0.122638	-0.630443	-7.80858
1.82143	82.5505	5	-3.34971	-7.48015	7.4937	-7.69669
3.59203	80.8995	5	1.86609	1.86135	2.16005	-7.80608
2.23024	81.2138	5	2.2601	-13.0825	-0.792854	-7.69677
5.1007	84.2788	4.99754	4.68087	0.914999	0.536903	-7.80804
6.4681	83.9713	4.98995	4.87702	0.646002	0.848951	-7.80484
6.87865	82.6332	4.98584	4.94064	0.811968	1.1377	-7.80589
5.9163	81.6143	4.99255	4.8498	1.35233	0.903476	-7.80534
4.54943	81.9261	5	4.72994	-1.68055	2.63754	-7.80747
4.14164	83.2573	5	4.55167	-2.66533	1.61882	-7.80659
19.6719	90.9014	5.10353	19.8318	5.94488	-2.14983	-7.79822
21.0564	90.5962	5.18382	19.7939	21.6322	-3.45383	-7.77638
22.0178	91.643	5.129	18.2864	22.2816	-0.305692	-7.88341
21.5808	92.9885	4.99245	29.6204	18.4945	-2.49347	-7.88321
22.4655	94.0796	4.88916	8.43304	-4.58188	4.44935	-7.44591
23.8769	94.3089	4.88444	-6.62849	-5.65527	41.293	-7.42127
10.801	102.845	4.96482	-2.03917	2.85499	0.0981318	-7.80865
11.2061	101.506	4.94511	-2.18456	2.42529	-0.660016	-7.80626
12.5649	101.189	4.88453	-2.6455	2.05222	-1.35801	-7.80573
13.506	102.219	4.82365	-3.95113	2.27904	-1.06946	-7.80668
14.0452	104.588	4.79651	-5.53928	2.93731	0.844952	-7.80032
13.1037	103.558	4.86015	-3.84299	2.97745	0.118726	-7.80779
11.7465	103.875	4.93879	-3.29309	2.74418	0.71558	-7.80292
11.3502	105.216	4.96859	-1.12874	3.34288	1.90334	-7.81052
12.3001	106.244	4.94518	-2.28188	2.4766	2.9948	-7.79914
13.6578	105.93	4.85683	-2.6925	3.92653	2.81711	-7.81062
30.1185	105.218	4.62634	-1.00947	0.953397	-1.61137	-7.80137
38.2859	97.5799	5.00002	0.379499	1.51976	0.340593	-7.80805
39.3074	96.6247	4.99999	0.645658	1.31684	0.35299	-7.80688
38.991	95.2619	4.99324	1.14873	1.27549	0.390572	-7.80786
36.9492	97.1689	4.98988	0.176582	1.14223	0.651635	-7.806
37.6534	94.8521	4.98608	1.11375	1.06063	0.482862	-7.80644
36.6311	95.8067	4.98397	1.20447	1.12656	0.589843	-7.80876
30.2461	95.124	4.91715	3.80237	-1.58523	-0.336877	-7.80846
30.9569	92.8117	4.98727	0.840593	-0.218	0.321258	-7.80362
31.2722	94.1734	4.95407	2.77631	-0.229833	0.030836	-7.80767
34.2708	96.3506	4.95975	1.73338	0.812164	1.09116	-7.81007
32.2402	98.2515	4.88798	-1.77942	0.0955978	2.92371	-7.80124
33.5739	98.6671	4.92744	-0.986653	1.52756	1.61472	-7.80985
34.5929	97.7117	4.95886	-0.456125	0.77897	1.3991	-7.80431
31.9093	96.8926	4.90502	3.35608	0.20646	2.07911	-7.81213
32.9329	95.9404	4.94226	1.92436	-0.403587	1.16323	-7.80292
47.0945	114.192	5	0.371476	-0.118481	-0.0723816	-7.80893
41.3513	94.7172	4.99665	1.34094	1.18346	0.311767	-7.80737
41.667	96.0802	5.00121	0.981118	1.24958	0.193786	-7.8073
44.0282	95.5363	5.00024	1.31932	0.994796	0.156674	-7.80671
43.3192	97.8529	5.00384	0.948606	1.20844	0.0279404	-7.80707
43.0046	96.4897	5.00198	1.02442	1.18079	0.0918273	-7.80645
44.9724	99.6238	5.0019	1.64313	1.17228	-0.353324	-7.80883
44.6572	98.2609	5.00174	1.02586	0.992909	-0.0527116	-7.8063
24.8587	78.2888	5.92542	75.9124	-0.841153	-4.05392	-7.61945
26.2167	78.8276	5.73837	69.668	24.9631	-17.8063	-7.66634
24.9088	76.93	6.26974	-25.1686	-31.8722	-8.34006	-7.24085
47.099	92.677	5	0.0626407	-0.160836	0.0785731	-7.80755
46.0767	93.63	5	1.41764	-0.0456088	0.460026	-7.80899
49.1437	90.771	5	-8.86474	1.89579	-10.7517	-5.13484
18.1341	87.5239	5.09998	8.73893	5.01126	4.00862	-7.8107
22.0134	82.8279	5.70868	-7.52891	9.87534	-23.955	-7.7447
23.9926	83.542	6.69175	-48.607	-22.1788	-24.8662	-7.1829
23.322	82.4975	6.10246	1.3101	0.169424	-26.702	-7.60583
21.5468	84.1637	5.66651	-21.6372	15.7813	-11.9654	-7.75581
22.3764	85.2192	6.02149	-37.5961	-3.10185	6.79759	-7.65601
23.5327	84.8784	6.64438	-68.6865	1.76144	12.0013	-7.19335
19.2392	79.789	5.28954	25.1048	-2.08023	-0.396639	-7.80386
21.1336	81.793	5.4355	11.9478	-4.6773	-21.8017	-7.72743
20.6178	79.4805	5.45462	30.795	-12.0483	2.85415	-7.75425
21.6346	80.4687	5.50738	57.5395	1.4037	-12.2131	-7.68732
16.4683	80.437	5.07016	8.91522	-2.59418	-0.415466	-7.79265
29.371	86.0356	5.28728	2.10253	5.74966	-6.9605	-7.80912
28.6487	88.3541	5.24179	10.0822	-13.6305	-2.59425	-7.78144
28.3559	87.0062	5.38219	5.04547	-9.33473	-15.1194	-7.75814
29.7044	82.3345	5.30843	10.546	2.84352	9.87943	-7.806
30.0688	83.6895	5.24946	-4.26241	3.03741	7.26733	-7.7972
33.6362	93.6274	4.96704	1.74344	0.13995	0.249262	-7.80673
33.3188	92.2655	4.97396	1.17841	0.211183	0.160225	-7.80718
34.9747	94.0349	4.97096	1.57571	0.628575	0.408117	-7.80818
25.2279	89.8461	5.35371	15.0744	-15.7318	7.43595	-7.46637
26.2296	88.8781	5.43895	32.6861	-3.2583	9.65225	-7.8586
27.5967	89.2818	5.28143	26.5852	-0.19671	10.1229	-7.78254
25.6735	91.1826	5.20736	-33.3841	-8.84396	-4.43556	-7.36126
27.4054	129.508	6.70854	-66.0044	-4.09915	-12.7475	-7.17368
20.9541	127.799	5.12458	4.44096	-0.503838	-10.9995	-7.79216
21.3897	126.461	5.17688	28.212	1.31142	-8.51125	-7.7827
23.7182	127.12	5.54531	28.0552	31.7918	-27.1183	-7.73829
22.7711	126.103	5.32609	30.3789	3.63602	-13.1687	-7.85612
25.2097	129.3	6.35847	-75.8809	9.02339	20.3056	-7.2261
26.2415	130.256	6.47779	-22.7027	-24.275	10.3548	-7.16417
26.1973	131.553	5.92807	57.8198	6.3161	12.3116	-7.6563
24.8406	131.935	5.57141	50.3414	11.0747	14.8947	-7.74509
34.9023	115.565	5.05597	8.25604	-0.27429	-1.47866	-7.80463
33.1122	123.844	5.06473	6.33526	-2.7064	4.90214	-7.79356
31.4618	127.109	5.32565	-10.2003	0.668655	6.28305	-7.79839
29.5429	128.997	5.92314	-25.278	8.83253	2.04979	-7.76939
28.0185	123.627	5.39031	12.8766	0.88953	-1.3756	-7.78415
30.7509	124.392	5.24534	9.40707	-5.12489	5.97499	-7.78537
25.3636	117.734	5.07516	9.85005	23.5856	6.74865	-7.80128
37.2841	115.018	5.04686	6.87974	-0.297896	-1.10094	-7.80557
43.309	140.872	5.01795	1.15632	0.495483	1.39738	-7.80446
27.5246	132.168	5.75816	57.7795	19.3138	5.40273	-7.73588
27.8195	133.538	5.49745	24.2412	14.9853	17.005	-7.85477
28.6845	131.309	5.84835	20.0954	1.09409	-17.4645	-7.6971
29.9854	131.744	5.54064	10.9798	-1.44017	-12.2295	-7.76531
27.1104	135.9	5.22975	3.24115	28.5554	-5.0848	-7.45271
25.852	136.587	5.14436	16.5569	-26.7783	-7.73317	-7.47171
31.0331	130.803	5.44058	2.58677	4.16362	-10.8177	-7.79884
32.3551	131.213	5.25098	1.21428	-0.673282	-8.06225	-7.78501
30.7997	129.429	5.5458	-19.0308	1.44889	-3.32187	-7.75831
33.3808	130.261	5.15232	1.02612	3.5359	-5.12863	-7.8137
33.0975	128.891	5.16065	-9.15778	2.31638	-1.41968	-7.78995
31.7829	128.469	5.32715	-12.153	3.00976	1.23211	-7.8019
33.9793	132.978	5.12656	6.57202	-1.49474	-4.53274	-7.80118
32.6381	132.58	5.20346	7.60014	-0.971014	-5.93289	-7.80586
42.1237	130.392	4.98976	3.67029	1.26442	0.275009	-7.80856
41.0957	131.343	4.99387	3.27567	0.813924	-0.149893	-7.80538
21.3447	138.927	4.92293	5.74123	0.407933	2.29623	-7.80755
23.2355	144.669	4.38327	-31.2688	-5.00908	-1.89723	-7.80648
22.3468	143.622	4.55414	-12.5634	7.03068	-15.0464	-7.78007
27.5365	142.341	4.59787	-2.63308	-18.2361	13.6622	-7.91527
39.0412	133.25	5.02105	4.60529	-0.455025	-0.5274	-7.80803
26.2552	151.925	3.41955	-20.9425	-27.2651	31.6314	-7.40671
11.6426	149.87	4.96235	2.54501	1.06566	1.3558	-7.80502
11.7869	153.567	4.98717	4.66003	0.134516	1.43339	-7.80745
12.1955	152.23	4.96865	3.93303	0.462006	1.83417	-7.80501
11.2363	151.209	4.97477	3.66571	1.12811	1.51008	-7.80857
13.0075	149.56	4.93381	2.76106	2.11258	1.7887	-7.81007
7.5356	200.477	4.98835	3.02546	1.14602	-3.1594	-7.80652
5.6367	198.45	4.9966	3.61118	0.0775093	-3.35551	-7.80973
5.21495	199.784	4.99708	3.82124	0.208458	-3.05903	-7.80305
6.1729	200.803	4.99343	3.1537	0.215039	-2.92801	-7.80678
9.32	198.817	4.98533	3.46951	0.633276	-3.15439	-7.80559
7.9567	199.141	4.9875	3.35117	1.11731	-3.32892	-7.80618
6.9995	198.122	4.99152	3.58162	0.707261	-3.32932	-7.80516
1.2637	192.009	5	9.35806	-31.1359	-10.1329	-4.98352
19.8845	197.642	5.12931	14.7153	-0.780502	-2.56692	-7.79002
18.5072	197.949	5.10971	12.4934	1.10229	-4.55431	-7.80796
3.44152	201.445	5	-0.989924	-0.0602811	-1.1947	-7.80841
2.07974	201.759	5	2.21565	-13.2354	-0.557697	-7.69712
1.67093	203.095	5	33.7605	-6.44184	-9.33711	-8.08498
2.6242	204.118	5	3.67145	0.575879	-0.68725	-7.80536
4.39321	202.465	5	1.4285	-1.37678	-1.69196	-7.80967
3.99224	203.802	5	-0.732842	-5.19175	-5.26141	-7.80965
0.309143	203.409	5	18.3672	8.97969	-2.27841	-2.87984
4.93759	204.813	5	-3.36791	1.0806	-6.57264	-7.80712
5.4863	207.181	4.99481	-2.12398	-0.150715	-1.97875	-7.80976
4.53513	206.161	5	1.63426	4.46838	-3.52997	-7.80186
0.8536	205.769	5	-10.4176	3.69331	9.80953	-5.13453
16.313	225.767	5.28421	6.9033	2.42712	-0.536346	-7.80292
23.5436	221.406	6.92594	-47.1601	-21.7235	-25.0878	-7.17405
24.935	221.427	6.92605	-48.1149	-18.2174	14.8811	-7.18937
15.8391	214.7	5.275	1.17895	-1.31192	4.19933	-7.79825
11.4599	208.255	5.04109	-3.0894	2.05912	-1.73855	-7.80699
21.8796	215.741	6.01908	32.7179	5.69395	26.0618	-7.69228
20.5292	216.064	5.75365	18.754	-5.72466	15.2496	-7.7673
22.0755	214.405	6.3797	-37.0706	-3.04164	12.7785	-7.73948
19.5154	215.076	5.74327	9.62902	3.41441	11.4926	-7.80327
