37.5	4.5
9.5498	1191.96	4.96665	7.74648	1.79382	0.70347	-7.8069
7.654	1193.48	4.98424	8.40129	1.91858	0.896298	-7.8055
8.16165	1192.17	4.97875	7.61427	1.39933	0.460679	-7.80564
9.9352	1194.35	4.96957	8.6566	1.37929	1.24024	-7.8059
10.4411	1193.05	4.96072	7.55067	1.25791	1.05803	-7.8044
39.7854	1162.55	5.04015	-1.04114	0.887175	1.46994	-7.80776
38.4273	1162.22	5.05562	-1.03683	0.425388	1.33619	-7.80652
37.4725	1163.24	5.09232	-1.61357	1.17183	1.40878	-7.80792
37.8757	1164.58	5.1131	-2.54492	1.18954	1.42627	-7.80574
39.2323	1164.91	5.08169	-2.42932	0.782348	0.930835	-7.80756
40.1872	1163.89	5.04811	-1.69481	1.0361	1.24404	-7.80697
24.9084	1151.39	3.69399	10.7159	-46.9534	-8.83108	-7.38965
24.4837	1152.67	3.91966	-4.14689	-30.3255	-17.8559	-7.86347
25.4231	1153.62	4.19443	-0.401585	-15.1972	-47.0196	-7.39605
26.838	1153.42	4.33962	13.0111	-1.4412	-13.4742	-7.4299
27.7689	1152.35	4.35196	20.6722	14.1199	-14.1246	-7.88298
27.4261	1151	4.18539	-8.21045	17.0361	-15.9948	-7.83576
26.1328	1150.67	3.84645	-28.2612	10.4334	-23.2271	-7.41245
22.5779	1150.67	3.76462	-36.457	-10.0972	3.41147	-7.73863
22.1759	1151.99	3.95495	-12.3885	-2.41131	11.8275	-7.77332
20.8347	1152.21	4.21737	-11.3258	-2.46001	10.4219	-7.77792
19.9684	1151.12	4.32989	-6.61788	3.89103	3.19223	-7.81278
20.438	1149.8	4.27096	-14.2515	-0.514257	-4.77295	-7.78234
21.7806	1149.57	4.0147	-16.2033	3.53707	-12.1395	-7.77618
25.4461	1160.43	4.06761	-56.6411	-19.7791	30.7207	-7.25558
24.0841	1160.29	3.9168	-50.1451	-36.5261	-16.2635	-7.26748
23.388	1159.14	4.17852	1.37521	-5.19988	-25.2364	-7.66971
30.2532	1160.32	4.91154	1.78671	2.14702	0.0767768	-7.80907
29.3096	1161.36	4.86867	-2.19111	3.96801	-1.03616	-7.78297
27.9558	1161.06	4.67746	-2.84028	23.1569	-0.783875	-7.79204
3.0564	1137.82	5	0.175726	-0.0947646	-0.0795262	-7.80614
1.67593	1138.04	5	3.02415	-24.6963	-4.31226	-7.5862
0.796325	1136.95	5	10.7227	-32.4544	-6.80659	-4.98387
3.55729	1136.52	5	11.2803	-0.299436	-1.7809	-7.80908
2.43336	1142.82	5	5.68128	-0.00861918	-0.652163	-7.80404
1.93248	1144.13	5	-4.59968	-7.06231	7.47634	-7.69707
0.173281	1141.95	5	18.6407	8.70185	-1.56923	-2.87981
1.55375	1141.74	5	34.9145	-7.42917	-6.49422	-8.08485
0.930715	1146.74	5	2.91036	-24.7297	-4.18086	-7.58632
22.3588	1097.95	4.77972	54.9073	32.122	9.4162	-7.73451
22.8155	1096.62	5.07228	17.0856	31.225	4.42404	-7.86966
20.9149	1098.16	4.86413	44.2534	1.75514	-3.36124	-7.72007
20.0067	1097.1	5.10202	22.041	-4.46909	5.42607	-7.77041
18.1894	1094.94	5.32575	-3.46856	-2.92818	7.22602	-7.79186
17.7048	1096.25	5.24461	5.26614	-5.93514	3.93175	-7.79639
18.6085	1097.31	5.14944	16.8236	-5.74645	0.30123	-7.80204
6.9075	1090.63	5.02355	0.935694	0.94147	-1.42366	-7.80941
8.6645	1092.79	5.07205	-0.283285	0.857832	-1.97062	-7.80678
9.16725	1091.49	5.0752	0.218546	0.985084	-1.77455	-7.8072
8.2874	1090.4	5.04783	0.725415	0.388628	-1.74442	-7.80681
7.28565	1093.02	5.03903	-0.273639	1.0225	-1.96884	-7.80749
6.4063	1091.93	5.01958	-0.352197	0.774876	-1.84548	-7.80632
35.3627	1045.78	5.00721	10.4332	0.423322	0.424586	-7.80601
33.5757	1044.13	5.00864	11.7506	0.495473	-0.0186862	-7.80491
33.9914	1045.47	5.0091	10.5039	0.010438	0.430194	-7.80425
35.7778	1047.12	5.01193	9.06206	0.136985	0.767996	-7.80379
36.5924	1049.79	5.03145	7.33677	0.801976	1.14312	-7.80878
13.2549	1040.59	5.00323	11.2159	5.40382	-3.672	-7.80651
28.7614	1049.25	5.08991	9.49363	-4.88204	-1.97615	-7.79784
17.3842	1053.44	5.06561	1.629	14.0291	1.20983	-7.8186
17.7665	1055.86	5.09158	6.04023	-1.73716	9.95915	-7.80211
18.2429	1054.55	5.09504	-6.51288	1.04788	13.4397	-7.7846
48.8982	1052.72	5	1.88947	-24.3775	6.48542	-7.58563
49.8603	1051.7	5	2.94529	-9.40703	10.414	-5.1345
40.0211	1065.56	5.0452	8.31792	0.88364	-1.50233	-7.8048
41.3893	1065.87	5.02858	8.29471	1.29616	-1.32002	-7.80554
35.3245	1066.93	5.11484	11.364	0.525123	0.141225	-7.79887
34.3442	1067.94	5.12973	12.3357	2.94011	1.6618	-7.80692
34.7551	1069.28	5.11624	11.161	3.21479	1.43392	-7.8005
36.1251	1069.6	5.08864	11.0273	2.68761	1.13167	-7.80612
36.6948	1067.25	5.08771	11.4626	1.35502	-0.557214	-7.80756
37.1007	1068.59	5.076	10.2589	0.9743	0.0454456	-7.8014
44.7053	1064.17	5.00366	7.61454	3.36074	-1.04534	-7.80456
44.3023	1062.82	5.0052	5.96068	3.06664	-0.900956	-7.80404
43.7332	1065.18	5.00892	8.29739	2.34297	-1.07875	-7.80549
42.9352	1062.51	5.01625	6.19366	2.06958	-1.18097	-7.80627
42.365	1064.86	5.02018	8.23061	1.65488	-1.07754	-7.80597
41.9641	1063.52	5.0257	6.95903	1.6578	-1.14082	-7.80517
33.185	1055.19	5.27145	-0.515172	1.09399	3.72851	-7.81035
30.8891	1055.87	5.49478	-4.9172	-0.26604	6.43925	-7.80934
31.8294	1054.86	5.34318	-1.51051	-2.48796	6.0406	-7.79388
32.4107	1061.26	5.35334	5.433	2.69628	-7.73184	-7.81113
29.739	1060.59	5.62985	-6.00833	-1.62971	-12.3598	-7.7846
30.0592	1061.93	5.47654	10.865	-1.0305	-11.6693	-7.79836
31.4184	1062.26	5.36631	8.48737	-0.76513	-9.16399	-7.79665
37.2755	1064.9	5.09152	9.23224	0.678464	-1.792	-7.80647
40.7752	1059.5	5.04534	4.04719	2.80813	-1.66709	-7.80435
39.983	1056.82	5.05255	3.64022	3.83179	-0.640395	-7.80892
39.411	1059.18	5.07059	4.1709	3.14324	-2.11122	-7.80921
39.0188	1057.84	5.07633	2.70216	2.85532	-1.42087	-7.80349
9.96015	1042.35	5.00472	12.3123	2.6251	-1.81382	-7.80224
11.3516	1042.13	5.00623	12.4064	4.80362	-2.11424	-7.80592
11.8648	1040.82	5.00241	11.5621	4.21585	-3.02353	-7.80107
9.4453	1043.66	5.0059	13.131	2.58739	-1.69569	-7.80399
9.8255	1046.05	5.00837	13.6203	2.57975	-1.69131	-7.8027
10.3421	1044.74	5.00871	13.2557	2.70112	-1.60388	-7.80112
13.72	1123.89	4.99222	12.0967	9.84204	0.968748	-7.81272
12.7242	1126.5	5.00173	15.2042	4.74318	1.77836	-7.79625
14.1207	1126.29	4.99832	15.8931	7.13987	3.56809	-7.80561
14.6161	1124.98	4.98967	10.3898	7.54556	3.35518	-7.78954
11.8216	1125.42	5.002	14.9647	5.86045	0.879718	-7.8059
12.3273	1124.11	4.99878	11.9012	5.50086	0.1735	-7.79593
24.5689	1120.33	4.75033	-5.19876	-6.41661	37.6793	-7.67166
23.7506	1121.39	4.56958	-57.7951	-24.7263	32.9076	-7.27344
22.4237	1118.86	4.77273	94.8569	23.1125	12.8122	-7.51146
23.969	1119.02	4.80685	90.5299	7.09317	18.1448	-7.54992
21.6711	1120.09	4.66289	8.634	-8.84666	-30.8934	-7.66768
22.387	1121.24	4.49701	-49.7205	-45.1505	-18.0309	-7.30301
25.3875	1123.11	4.80027	-5.83272	5.76976	-16.881	-7.84678
24.0654	1122.78	4.60876	-27.2194	4.24367	-21.7505	-7.43116
22.8244	1123.47	4.55229	10.036	-53.2471	-7.94795	-7.40481
22.3994	1124.76	4.70913	-2.7056	-35.7976	-20.1168	-7.85748
23.3589	1125.7	4.89593	5.58761	-19.2546	-53.5915	-7.37395
3.10528	1053.25	5	10.947	-0.38934	-1.27068	-7.80173
4.50354	1053.03	5	11.7218	1.66321	-0.903287	-7.80086
6.38755	1051.5	5.00168	12.2279	3.43891	-1.33771	-7.79384
4.99327	1051.72	5	5.65721	-3.71172	-5.81795	-7.81232
4.1251	1050.64	5	6.93955	-4.83944	-5.47574	-7.80805
1.61485	1070.64	5	2.61508	-25.2972	-4.62494	-7.58565
4.63401	1076.29	5	0.392018	-1.57109	-4.03198	-7.81043
2.73878	1064.34	5	7.4479	-0.181433	-0.840576	-7.8036
2.23789	1065.64	5	-4.11941	-6.58888	7.72746	-7.69705
0.857415	1065.86	5	-11.5915	4.57176	8.83757	-5.13502
0.478697	1063.47	5	18.7547	8.7238	-1.6609	-2.87954
1.85918	1063.25	5	35.0953	-7.47083	-6.7658	-8.08462
4.50934	1066.51	5	7.80277	1.278	-2.01102	-7.80386
5.01415	1065.2	4.99853	2.9349	1.8259	-1.20449	-7.81084
7.90655	1061.06	4.99433	6.74311	2.01167	-1.8689	-7.80582
3.75278	1061.73	5	3.84699	-7.8275	-3.29324	-7.80925
4.62342	1062.81	5	2.00246	-1.76061	-5.14969	-7.81101
4.24303	1060.43	5	5.43449	-3.30545	0.770358	-7.81239
6.0112	1062.59	4.997	6.30797	2.25088	-1.07036	-7.79861
5.63035	1060.2	4.999	7.61461	1.77308	-1.28852	-7.79898
6.5207	1061.28	4.99686	6.89088	2.06027	-1.21566	-7.80294
21.2256	1050.41	5.08417	8.49176	-3.83148	-26.0523	-7.70153
21.9716	1049.18	5.07868	93.7628	26.7929	15.4918	-7.52125
21.0768	1048	5.05783	71.9825	31.1514	8.72251	-7.67808
19.8299	1050.6	5.06401	2.02311	11.9895	-23.4524	-7.78231
17.2506	1047.33	5.03252	32.7011	1.7429	0.404325	-7.79055
18.9956	1049.49	5.04669	21.3562	-1.73269	-18.8995	-7.7534
18.6684	1047.12	5.03982	37.5788	0.09851	4.79228	-7.75013
19.6027	1048.2	5.04738	62.0768	7.1662	-4.34034	-7.68094
15.3071	1048.85	5.0248	19.7887	2.95339	-4.68738	-7.80614
17.0305	1051.01	5.03962	4.04074	5.88685	-11.7277	-7.80109
17.5925	1049.72	5.03735	20.2688	5.84082	-11.5189	-7.80169
16.7069	1048.63	5.03055	20.4085	-2.4243	-6.47068	-7.77417
14.4086	1047.77	5.02115	16.2756	0.754431	-2.01646	-7.79034
12.1158	1046.91	5.01415	14.1297	2.26023	-1.54716	-7.79957
13.0133	1047.99	5.01688	15.7011	2.27575	-2.1704	-7.80535
9.4296	1057.14	5.00426	7.77773	2.64418	-1.68663	-7.80634
7.6665	1054.97	5.00349	7.63691	2.67995	-2.04074	-7.80751
9.94175	1055.83	5.00799	7.64099	2.79123	-1.52083	-7.80511
9.05365	1054.75	5.00659	7.86659	3.30995	-1.85337	-7.80545
8.0426	1057.36	5.0018	7.68572	2.06055	-1.80041	-7.80403
7.1543	1056.28	5.0019	7.82667	2.77337	-2.28049	-7.8051
10.5783	1050.82	5.01098	10.9248	3.34793	-2.65701	-7.8033
11.4682	1051.91	5.01415	9.46922	3.22111	-2.25578	-7.8033
11.0973	1049.52	5.012	12.2424	2.99409	-2.96217	-7.80504
12.4887	1049.29	5.01577	12.1373	1.80925	-3.17554	-7.79945
14.8738	1059.96	5.01395	10.2914	1.20785	-1.13558	-7.80912
13.9816	1058.87	5.01624	8.2228	0.513322	0.0778127	-7.80273
16.7842	1058.44	5.05642	15.2733	1.0404	0.596702	-7.8074
16.2645	1059.74	5.03179	10.4585	-0.572811	-1.74382	-7.79723
14.84	1073.44	5.09826	4.94875	-1.08817	1.60991	-7.80801
15.831	1070.83	5.12097	1.90345	1.85533	1.81509	-7.81204
13.9512	1072.35	5.06277	3.57859	0.126246	1.3016	-7.80828
14.4495	1071.05	5.06741	1.80798	0.648451	1.50185	-7.80293
16.2239	1073.22	5.15708	5.529	-1.26002	2.50722	-7.80506
16.716	1071.92	5.1809	1.68646	-0.19975	3.44693	-7.7997
17.6995	1069.3	5.21295	-1.97401	2.6114	0.505036	-7.8128
16.3227	1069.52	5.12558	-1.50461	1.37196	0.748151	-7.79968
18.1947	1068	5.20153	-4.51007	0.754795	-2.89072	-7.80343
17.3282	1066.91	5.09848	-1.82268	-0.613488	-2.49287	-7.80333
12.9515	1074.96	5.05218	4.6522	-0.577082	-0.310626	-7.80985
12.064	1073.88	5.03002	3.72192	0.433899	-0.354744	-7.80541
11.6829	1071.49	5.01203	2.8414	0.831785	-0.115748	-7.80906
12.1848	1070.18	5.00936	1.9816	1.09879	-0.0650549	-7.80428
11.3034	1069.09	4.99341	2.30223	1.84493	-0.596074	-7.80949
9.92095	1069.31	4.98957	2.29939	1.68634	-0.867264	-7.80545
7.53485	1085.62	5.02012	2.44776	0.434368	-2.00809	-7.80676
13.7044	1079.73	5.11352	2.28503	0.486741	-1.02815	-7.80574
15.0849	1079.51	5.16756	1.93193	1.48436	-2.09314	-7.80825
15.5943	1078.2	5.16993	2.71345	0.411044	-3.4119	-7.80939
14.7116	1077.12	5.11812	3.48375	-1.54615	-2.34513	-7.80147
19.9797	1083.65	5.6495	3.18884	1.20094	11.1929	-7.80742
18.2016	1081.46	5.45392	-5.49949	2.65369	0.875699	-7.785
2.75099	1077.82	5	5.04273	-0.108997	-0.521909	-7.80467
0.86963	1079.34	5	-11.7494	5.38005	8.63205	-5.13354
2.25011	1079.12	5	-4.40034	-6.5399	7.844	-7.69632
1.87139	1076.73	5	35.004	-7.42289	-6.72909	-8.08418
0.490914	1076.95	5	18.7541	8.72381	-1.66091	-2.87954
0.50313	1090.43	5	-11.5918	4.57185	8.83779	-5.13502
4.14813	1091.08	5	2.44182	3.08076	-2.16802	-7.80428
2.38449	1088.91	5	2.90578	0.087001	-0.238485	-7.80629
2.76321	1091.3	5	2.74612	-0.106146	-0.182522	-7.80477
1.8836	1090.21	5	-4.21554	-6.49092	7.79079	-7.69707
6.02635	1089.54	5.00984	1.00991	0.357715	-1.11475	-7.80404
4.64496	1089.77	5	-0.898576	0.251119	-4.39516	-7.80871
3.76975	1088.69	5	0.499259	-4.10775	-2.90272	-7.80957
6.5306	1088.24	5.01354	1.44854	0.0545511	-1.31543	-7.80631
0.74746	1083.04	5	10.7765	-32.5391	-6.73249	-4.98358
1.62707	1084.12	5	2.91131	-24.7325	-4.17626	-7.58632
44.361	1182.36	5.00648	6.37084	2.93173	-2.43033	-7.80399
43.9663	1181.01	5.01238	5.8811	2.56441	-2.38666	-7.80895
45.7266	1182.68	5	7.36824	-3.12364	-7.28531	-7.80734
46.6993	1181.65	5	4.63298	4.71142	-5.30327	-7.80096
43.7428	1175.98	5.01698	0.657211	1.48471	-1.32909	-7.81049
45.1018	1176.31	5	4.70234	-5.1955	-9.17262	-7.79755
42.7796	1177	5.03616	0.817224	1.52553	-1.52214	-7.8008
43.1753	1178.34	5.02685	4.42534	1.97527	-2.33602	-7.80543
39.8691	1180.05	5.09826	5.3556	1.39648	-2.686	-7.80319
40.2587	1181.39	5.07105	7.13413	1.08575	-2.47005	-7.8074
38.5061	1179.72	5.15134	5.3205	1.29217	-2.97327	-7.80877
39.2781	1182.39	5.07961	8.1757	1.39371	-2.20834	-7.80327
37.5271	1180.73	5.16643	5.92214	1.4725	-3.0525	-7.80243
37.9115	1182.07	5.11982	8.49028	1.51093	-3.05706	-7.8061
39.6699	1183.74	5.05364	10.1944	1.3788	-1.96182	-7.80409
40.4523	1186.4	5.02134	12.9408	1.21937	-0.471004	-7.80339
41.4367	1185.4	5.01967	11.0973	0.926941	-1.34138	-7.80344
41.0389	1184.06	5.03204	10.0421	1.37017	-1.88023	-7.80333
12.9143	1173.06	4.95567	2.51763	2.30638	0.026064	-7.80798
11.5304	1173.28	4.95271	2.79006	2.18577	0.655145	-7.80691
13.4188	1171.76	4.98883	4.00589	2.37157	0.113172	-7.80849
10.6478	1172.19	4.97272	3.02324	2.30681	0.657334	-7.80641
6.87325	1175.22	4.98219	4.04271	1.80973	2.08184	-7.80701
5.48745	1175.43	4.99611	3.73419	0.183763	1.83218	-7.80791
4.60292	1174.34	5	6.09004	0.786693	0.792244	-7.80494
5.1067	1173.04	4.99771	3.68612	0.238068	1.20711	-7.80598
12.1523	1168.28	5.04626	3.67177	1.255	1.13914	-7.80598
11.1503	1170.88	4.99388	3.47824	2.08813	0.532964	-7.80756
13.0383	1169.36	5.03763	4.22059	1.6889	0.723191	-7.8087
12.5348	1170.67	5.00536	3.55524	1.76502	0.729996	-7.80501
12.2692	1164.58	5.0828	2.78902	1.23594	1.57521	-7.80577
11.7688	1165.88	5.06963	3.56577	1.46642	1.69006	-7.80698
10.3845	1166.1	5.04964	3.46131	1.45088	1.37302	-7.80667
11.3857	1163.49	5.07263	2.80331	1.99377	1.15799	-7.80845
6.6113	1169.13	5.00247	3.46328	1.39299	0.987346	-7.80782
7.6137	1166.53	5.01754	3.52639	1.56652	1.44158	-7.80677
5.72785	1168.05	5.00287	2.96149	2.13301	0.986929	-7.80669
6.22895	1166.74	5.0074	3.43546	2.16117	1.01915	-7.80762
9.88265	1167.4	5.03261	3.67633	1.62794	1.56183	-7.80666
8.498	1167.61	5.01888	3.65626	2.23851	1.16063	-7.8064
7.99605	1168.92	5.00709	3.5585	1.96864	0.919065	-7.80685
8.88125	1170.01	5.00062	3.35952	1.08969	1.32984	-7.80753
10.2658	1169.8	5.00718	3.25833	1.07655	1.06231	-7.80722
10.7678	1168.49	5.02859	3.86153	1.63415	1.49056	-7.80716
4.9682	1163.25	5	4.57668	1.20931	0.833875	-7.80569
5.3453	1165.65	5.00366	3.44384	2.69468	0.797144	-7.80719
5.8482	1164.34	5.00615	2.98697	2.73835	0.837635	-7.8049
3.58173	1163.47	5	3.82636	-0.0406842	-0.452437	-7.80693
6.8404	1148.25	4.9997	1.2596	1.94872	0.129912	-7.80865
7.34265	1146.95	4.99791	1.11136	1.83164	-0.085362	-7.80697
6.47385	1159.35	5.012	1.68125	0.867815	1.29765	-7.80685
6.97445	1158.04	5.01373	1.23795	0.527375	0.919373	-7.80564
3.19079	1147.6	5	4.16947	-0.571108	-0.921984	-7.8081
2.6899	1148.91	5	0.255777	-0.0810769	0.125773	-7.80709
5.4584	1148.47	5.00008	1.16673	0.354645	0.0296312	-7.80676
4.57808	1147.38	5	4.80605	1.21977	-0.968457	-7.80661
1.30943	1149.13	5	3.02426	-24.6962	-4.31216	-7.5862
0.80854	1150.43	5	10.7229	-32.4546	-6.80668	-4.98387
0.429824	1148.04	5	10.7003	-32.477	-6.76073	-4.98342
1.18726	1152.82	5	10.7223	-32.4601	-6.80442	-4.98387
43.2296	1076.26	5.0049	6.38481	2.4673	0.405701	-7.80424
41.8638	1075.93	5.0111	6.40852	1.82551	0.274807	-7.80603
43.7955	1073.9	5.00503	7.60239	1.7011	0.394948	-7.80702
44.2004	1075.24	5.00276	6.82439	1.81651	0.327403	-7.8009
41.4579	1074.59	5.01589	7.16651	1.704	0.483815	-7.80627
42.4284	1073.58	5.01168	7.55846	1.74182	0.602326	-7.80553
49.0815	1078.9	5	-9.99918	2.944	-10.0103	-5.13572
49.4785	1080.24	5	2.8829	-10.2502	10.188	-5.1352
38.3154	1072.61	5.04807	7.44697	1.94401	1.05812	-7.80572
37.9055	1071.27	5.05694	8.85025	2.36521	0.84643	-7.80662
37.3473	1073.62	5.05664	6.817	2.30104	0.9935	-7.8058
35.9804	1073.3	5.07802	6.86072	4.00935	1.27389	-7.8067
35.569	1071.96	5.0908	7.43523	3.68422	1.91185	-7.80572
36.5374	1070.94	5.07757	8.46349	2.1039	1.69679	-7.80429
32.8013	1083.77	5.09493	1.34234	1.92593	-0.338224	-7.80678
33.7578	1082.74	5.07908	2.60585	2.11106	-0.0140625	-7.80586
36.082	1082.04	5.02798	3.05787	2.23862	-0.28612	-7.8062
36.8877	1084.72	4.97538	2.46455	2.20519	-0.508357	-7.80637
35.1212	1083.06	5.03221	2.73843	1.44611	-0.502476	-7.80758
35.5243	1084.4	4.99724	2.41591	1.45882	-0.712963	-7.80721
37.8487	1083.7	4.98512	2.8232	1.30543	-0.619572	-7.80733
37.4459	1082.36	5.00535	3.24306	1.43745	-0.822501	-7.80727
28.6895	1095.25	4.83312	-10.2331	-0.527939	3.6653	-7.80624
29.4734	1097.92	4.57522	-0.0295762	-4.69894	-7.18271	-7.8047
27.7676	1096.28	4.75729	-26.0595	-14.9628	-9.21826	-7.80034
28.1135	1097.61	4.59922	5.80335	-13.7912	-13.3018	-7.7716
34.1013	1096.51	4.71658	-1.87062	0.760957	-0.89055	-7.8059
35.0564	1095.49	4.75863	-1.24084	1.21012	-0.457667	-7.80702
34.6591	1094.15	4.77916	-0.992644	1.27451	-0.278601	-7.80766
33.2991	1093.83	4.78086	-1.35035	0.580781	0.290913	-7.80467
31.1298	1090.84	4.94466	1.6075	0.976513	-0.293398	-7.80566
31.5304	1092.18	4.87986	2.25234	0.960603	-0.662804	-7.80384
32.8932	1092.5	4.829	1.69681	0.670167	-0.17105	-7.80886
33.8528	1091.48	4.84456	0.584886	0.283828	-0.920154	-7.80535
32.0911	1089.83	4.93043	0.625186	-0.707167	-1.64213	-7.8053
33.4528	1090.14	4.88481	0.866837	0.948145	-1.57823	-7.80732
13.2801	746.544	4.76442	4.3901	-1.08037	2.3786	-7.80368
16.7641	750.902	4.45111	-2.51922	0.139689	-2.96831	-7.80445
20.6498	754.026	3.76105	-14.3403	-1.241	16.652	-7.77207
21.061	752.72	3.54778	-40.3563	-6.83925	7.74582	-7.7226
23.0127	748.939	4.05683	79.8915	27.4851	22.0347	-7.57368
22.2684	750.131	3.7496	3.3679	-3.40222	-16.5005	-7.6821
33.7375	759.065	4.92283	10.0499	7.38266	-3.5974	-7.80981
33.3599	757.712	4.90154	5.18934	6.88051	-2.59136	-7.79606
37.2665	795.98	4.70638	-5.12923	-1.9485	-1.58394	-7.80274
35.9228	795.653	4.53814	-5.39289	-1.60197	-1.76	-7.80894
33.2769	795	4.08473	-10.0103	-1.35462	-0.442589	-7.79597
31.9545	794.664	3.82212	-11.4255	-0.515581	0.976137	-7.80019
34.2052	793.983	4.29311	-8.00677	-1.81901	-0.0181066	-7.80441
33.8045	792.648	4.30296	-6.36524	-2.75997	1.10421	-7.80792
28.3571	791.428	3.92413	11.8667	-6.07681	-4.59538	-7.79675
27.4267	792.464	3.72112	25.7223	-16.6043	-12.2471	-7.7092
32.03	791	4.22865	0.0683685	-3.99245	0.977762	-7.81066
30.2051	793.002	3.69891	-10.0651	-5.78083	5.95761	-7.77556
32.4631	792.321	4.12624	-7.01026	-4.39461	2.49379	-7.79434
31.5459	793.331	3.86243	-9.10056	-2.60144	3.44245	-7.80671
30.6687	790.694	4.14569	1.80188	-4.80295	-0.252414	-7.79542
29.7348	791.706	3.90945	6.21322	-4.34195	1.56153	-7.8014
27.9531	793.687	3.35294	-16.0422	-33.7041	14.1719	-7.74086
29.3027	794.009	3.39254	-14.1112	-0.136238	8.86231	-7.79231
29.5404	783.051	4.76322	-2.81619	2.64004	-3.38788	-7.79864
30.4828	782.016	4.80075	1.94267	2.63764	-1.83533	-7.80915
31.8495	782.315	4.83377	1.9495	1.49608	-1.83239	-7.80532
32.2588	783.653	4.81777	2.24017	1.50529	-2.46055	-7.80908
30.7763	787.036	4.59185	-1.11498	-2.67919	-3.3558	-7.80804
29.4117	786.75	4.58094	-0.932098	-5.59304	-4.61289	-7.79908
28.9947	785.426	4.67512	2.72297	-3.23152	-10.2699	-7.80101
29.9417	784.391	4.7411	2.39225	3.0006	-5.89106	-7.80822
31.7228	786.014	4.69961	-0.356041	-1.38699	-2.37176	-7.80823
31.3097	784.681	4.7596	1.28146	-0.107279	-3.7935	-7.80042
33.4988	787.645	4.66622	-1.03865	-1.86852	-1.02944	-7.80585
34.8586	787.954	4.72895	-1.30963	-1.87181	-0.713813	-7.80725
32.9697	789.989	4.43261	-1.73683	-3.87106	-0.289283	-7.79978
32.5526	788.662	4.52716	-1.236	-3.05478	-1.47759	-7.80755
34.3248	790.303	4.53971	-2.2959	-3.5943	-0.186426	-7.8099
35.2689	789.286	4.68645	-2.4796	-2.35574	-0.114538	-7.80385
20.1443	775.929	4.92083	13.9365	-4.22427	-22.5856	-7.7425
22.1271	770.704	5.54918	3.25027	12.4415	-1.47403	-7.80361
18.4199	773.813	5.21077	26.9472	-3.18525	-3.19124	-7.79725
21.5808	755.078	3.78952	0.0975426	5.96387	7.14177	-7.80031
27.7394	781.431	4.6787	12.3613	7.29711	-7.89432	-7.78403
28.6909	780.387	4.72875	9.07349	9.18937	-6.39732	-7.8061
20.9624	777.014	4.65269	-3.90518	11.0812	-28.3605	-7.76196
21.7693	795.362	4.34924	14.3329	13.8782	-7.14405	-7.78068
13.6994	802.805	5.00394	2.56792	3.76923	-0.0209273	-7.80768
26.5659	789.856	4.20275	-3.41188	34.7282	-6.34073	-7.78332
26.1709	788.495	4.35207	-19.876	22.5891	16.2369	-7.75876
25.662	790.958	4.12522	-22.9554	24.0149	-29.0565	-7.78324
10.6741	783.646	5.01675	4.63856	1.24769	-1.22445	-7.8047
11.1809	782.34	5.03076	4.74922	1.14743	-1.17653	-7.80618
42.2522	936.617	4.9663	4.39151	1.78756	-1.21502	-7.80646
43.8486	941.973	4.99427	5.17259	1.21097	-0.741033	-7.8034
45.2142	942.293	5	3.67349	-2.53185	-0.846597	-7.80915
45.819	1029.59	5	6.77664	-2.01379	-6.49195	-7.80524
44.0601	1027.92	5.00706	6.99724	5.45136	-3.46064	-7.80318
44.4544	1029.26	5.00524	5.52158	4.64848	-2.38169	-7.80704
45.1929	1023.22	5	7.23245	-5.8826	-7.34889	-7.7998
46.1595	1022.19	5	7.25918	0.192075	-5.64706	-7.8004
48.15	1028.89	5	2.77549	-13.2317	0.476825	-7.69707
46.7909	1028.56	5	4.6395	4.00827	-4.6912	-7.80442
49.1121	1027.87	5	9.54319	-31.1561	9.80796	-4.98365
48.715	1026.53	5	1.85846	-24.3154	6.46884	-7.58596
45.0813	1035.62	5	12.225	2.5931	-1.5524	-7.79994
46.2173	1030.91	5	9.45061	-1.0673	-6.45225	-7.79937
47.02	1033.6	5	7.72308	-0.0113473	1.07974	-7.80874
47.585	1031.24	5	5.0357	-0.429852	1.08074	-7.80533
47.982	1032.58	5	-2.67847	-7.82621	-7.72395	-7.69689
15.6372	970.385	4.94518	15.982	5.80333	-8.34602	-7.79836
17.0332	970.154	4.89043	15.9613	6.57731	-12.654	-7.78391
14.9879	958.227	4.573	2.20374	3.51319	1.34983	-7.8082
17.607	968.858	4.85382	32.6962	7.57684	-10.9461	-7.78073
18.0499	977.418	4.96822	4.32461	1.02246	7.51747	-7.80188
18.9448	978.503	4.94667	11.5566	-0.264369	5.91401	-7.80248
17.3437	972.569	4.88477	3.72133	13.473	-6.5393	-7.80987
20.0443	972.19	4.44935	-15.682	12.6911	-7.84755	-7.74833
19.2661	971.05	4.6667	4.2335	16.8201	-15.774	-7.78139
17.8849	971.264	4.83375	3.65829	10.9332	-11.9848	-7.78156
20.3535	974.639	4.4227	-14.5527	3.40785	12.7001	-7.76077
19.9048	975.939	4.63823	-1.87119	2.19778	13.3968	-7.79698
18.5389	976.115	4.85829	-2.71627	2.88007	9.21841	-7.78729
17.6823	975.001	4.90404	1.31784	10.2135	2.53001	-7.81436
18.1803	973.692	4.80862	-6.31305	9.59862	-0.891493	-7.77312
19.543	973.501	4.57038	-6.84968	16.3804	1.02593	-7.80313
22.1609	976.846	4.27668	7.77549	10.5493	12.1075	-7.77931
20.8022	977.024	4.57883	6.93421	0.109583	11.9137	-7.78721
20.3314	978.32	4.78963	13.7486	-2.5859	9.02458	-7.78529
21.2437	979.399	4.79166	25.3803	0.887287	4.86578	-7.77615
22.6499	979.222	4.61105	32.1693	11.666	12.2184	-7.86843
23.0943	977.918	4.32399	13.5267	12.4548	12.0294	-7.88042
27.2224	975.211	3.73797	16.5938	2.52345	3.96027	-7.87834
15.5228	983.899	5.14793	5.00067	1.67698	-0.388919	-7.80997
14.6393	982.812	5.14887	4.69186	1.22442	0.0426862	-7.80316
13.2537	983.025	5.13783	4.86504	2.51978	0.228444	-7.80755
12.7462	984.331	5.12931	3.56966	2.08207	-0.21947	-7.80715
30.3094	998.461	5.30015	-8.68295	0.125186	6.18966	-7.79486
27.6046	981.597	4.58429	25.8526	23.9485	-5.70187	-7.75703
27.2969	980.216	4.43714	8.34117	18.5663	1.49816	-7.80121
28.3367	979.271	4.33167	-1.85354	4.17303	-8.76622	-7.7928
29.6789	979.63	4.44941	-0.683769	3.19755	-9.30649	-7.78944
26.7332	977.542	4.00078	-43.7774	-5.57144	-7.82685	-7.32818
25.6491	978.425	4.18434	13.0364	-32.208	9.7259	-7.46177
24.4471	977.655	4.10325	-6.2776	13.0355	9.99191	-7.45188
24.8449	976.308	3.7878	-0.83435	-13.4575	-29.5797	-7.43804
26.2661	976.225	3.77936	3.34564	-14.0167	4.9726	-7.45874
30.1944	986.006	4.83669	14.3796	12.0661	10.3337	-7.8005
30.6249	987.354	4.87253	11.5157	13.0836	5.79665	-7.80896
15.8879	959.301	4.55701	2.18298	5.07175	0.710778	-7.80341
23.7259	959.523	4.61516	-0.868072	-5.39966	30.9216	-7.4519
22.3175	959.344	4.46055	8.45612	-7.7206	-1.30113	-7.46979
24.0208	960.926	4.79897	3.64513	15.4169	-10.5492	-7.45705
28.4178	958.293	5.04214	-5.25289	-1.07811	-15.1108	-7.78052
29.3794	957.268	5.04776	-1.30726	7.69334	-7.76601	-7.81059
30.7354	957.581	5.16674	-1.09348	2.58766	-7.43286	-7.78807
34.048	964.565	5.2881	9.22997	-2.74973	-0.786302	-7.79972
33.4815	966.903	5.20974	8.87057	-2.62117	1.72721	-7.79695
33.0683	965.567	5.27037	11.5334	-1.95473	0.573382	-7.80826
34.8494	967.222	5.18594	8.67496	-0.489533	1.26449	-7.80957
35.8232	966.215	5.21019	7.69533	-1.83095	0.24855	-7.80028
35.4166	964.878	5.25516	8.74028	-1.5389	-0.609125	-7.80892
30.6137	969.91	4.86013	1.3544	-3.32354	6.29881	-7.79284
32.5091	967.909	5.14397	9.9895	-1.27746	2.90253	-7.80977
42.4322	962.799	5.06295	5.12738	1.09717	-1.23158	-7.80736
43.3999	961.785	5.03747	4.64989	0.755433	-1.5551	-7.80548
40.0975	963.493	5.13586	5.82098	0.515832	-0.857247	-7.80757
39.3032	960.826	5.17336	5.17184	0.982447	-1.84547	-7.80592
40.668	961.14	5.12484	4.9523	1.39221	-1.3803	-7.8064
41.0675	962.483	5.10789	5.06385	1.15348	-0.973385	-7.80532
38.7321	963.178	5.18439	6.14302	-0.102417	-1.29113	-7.80487
38.3323	961.836	5.20556	5.88239	0.196207	-1.85047	-7.80691
42.8338	964.14	5.04772	5.43341	0.957274	-0.875958	-7.80469
43.632	966.814	5.02333	5.89334	1.43465	-0.68766	-7.80818
44.1993	964.457	5.0157	5.37377	2.84714	-0.75766	-7.80557
44.6011	965.8	5.01054	5.42192	2.78384	-0.576209	-7.80451
41.2963	967.505	5.06301	5.89904	1.27281	-0.572257	-7.80766
42.2666	966.493	5.05153	5.92308	1.21258	-0.635296	-7.80468
41.8644	965.152	5.07002	5.82217	0.992298	-0.689373	-7.80793
40.4992	964.834	5.11214	5.92464	0.543147	-0.734281	-7.80432
39.9314	967.184	5.0967	5.62	-0.148145	-0.0945796	-7.80464
39.528	965.845	5.12852	6.61528	0.114362	-0.488438	-7.80841
21.2737	969.574	4.45027	26.3378	30.0139	-21.0177	-7.65766
19.6167	967.332	4.77014	64.0704	16.4814	-3.87053	-7.65971
21.0935	967.113	4.72776	71.771	49.7916	7.18568	-7.62912
21.9954	968.294	4.58383	90.3155	47.7031	6.76139	-7.50704
19.8685	969.755	4.65039	21.7201	16.9985	-17.4249	-7.76049
19.0245	968.635	4.77568	34.4504	8.65354	-14.9442	-7.74719
29.3404	965.948	5.22289	15.6574	-3.36423	0.131653	-7.79528
30.7164	966.257	5.23222	14.347	-2.80316	1.22429	-7.80473
30.1728	968.59	5.00797	12.0395	-3.37541	4.856	-7.81018
31.1397	967.588	5.14453	10.3709	-4.42699	3.46295	-7.79128
25.2466	965.067	5.07323	-17.6724	3.53559	-20.1926	-7.36575
26.5981	965.33	5.14785	-4.39111	-13.2268	-9.73948	-7.81525
25.7127	962.681	5.07184	41.4976	16.0381	-11.5365	-7.85163
24.7423	963.731	5.03822	30.2668	0.364362	-16.6525	-7.4061
27.1161	962.973	5.17905	33.8436	2.30005	-3.53534	-7.76221
27.5512	964.309	5.21474	13.2282	-1.02479	2.9222	-7.80616
34.1237	981.986	4.7956	14.1053	0.913296	-3.06554	-7.80082
33.7398	980.64	4.73647	9.85911	1.49051	-4.16738	-7.79808
35.4949	982.305	4.84081	12.876	0.376239	-1.64324	-7.80362
34.7264	979.638	4.74959	8.44347	2.71137	-3.70259	-7.80957
36.482	981.305	4.84674	10.7016	1.39951	-1.97018	-7.80431
36.0919	979.959	4.81135	8.04973	1.83452	-2.6784	-7.80128
32.0138	978.965	4.5628	2.22315	3.78642	-4.25847	-7.79049
30.3187	977.27	4.29655	-9.19021	6.00303	2.84681	-7.79425
30.6621	978.624	4.43126	1.65729	9.28982	-4.08	-7.81334
38.8319	980.618	4.89851	9.04258	1.65817	-1.79667	-7.806
40.1996	980.937	4.92964	8.49661	1.76776	-0.647976	-7.80422
41.1759	979.93	4.9452	7.42392	1.91935	-0.889384	-7.80656
37.2652	975.254	4.86233	3.0263	1.9357	-0.751503	-7.80389
35.905	974.925	4.81058	2.51449	2.41493	0.0714346	-7.80823
30.0842	972.231	4.44977	0.728857	2.03246	2.2536	-7.80525
29.537	974.566	4.13065	3.97416	0.296973	2.43637	-7.7934
29.1447	973.223	4.15122	0.537305	0.739633	1.4649	-7.79034
34.2952	969.567	5.04854	5.03277	0.399147	2.48137	-7.80879
31.9723	970.245	4.90703	2.43439	-0.605931	3.95782	-7.80796
32.932	969.24	5.04465	4.40805	-1.6134	3.76603	-7.79861
36.0683	971.232	4.97834	3.81515	1.34327	0.980467	-7.80732
36.4721	972.572	4.92245	2.91618	1.33375	0.839702	-7.80621
35.5077	973.582	4.83831	2.46501	1.73369	0.92364	-7.80607
34.7066	970.903	4.96349	3.04499	0.350814	2.42004	-7.80403
47.2185	978.87	5	5.62455	0.406003	1.28277	-7.80793
46.4244	976.191	5	2.95406	3.18099	-3.10342	-7.80522
47.7835	976.517	5	2.2445	-13.6811	0.835586	-7.6971
48.1805	977.856	5	-2.96669	-8.20286	-7.465	-7.69738
45.8505	978.543	5	7.04741	-5.06201	-1.90039	-7.80639
45.4553	977.212	5	6.63548	-3.08347	-4.04713	-7.80567
47.7225	967.789	5	2.3386	-13.6209	0.964933	-7.69632
48.6845	966.775	5	9.23889	-30.6336	10.5273	-4.98345
38.8006	971.887	4.99034	4.07772	1.78584	0.557203	-7.80622
39.5953	974.568	4.93998	4.33424	1.86849	-0.957233	-7.80461
40.5638	973.554	4.97124	4.87283	1.91891	-0.69909	-7.8077
40.1638	972.213	4.99197	4.34989	1.49224	-0.195236	-7.80735
38.2325	974.242	4.91597	3.85132	2.53996	-0.222873	-7.80765
37.8339	972.899	4.94439	3.3449	2.03103	0.360271	-7.80652
42.3267	975.221	4.97459	5.80276	2.30071	-1.02197	-7.80757
43.1167	977.896	4.97699	6.0485	1.59665	-1.46927	-7.80317
44.0901	976.886	4.98978	6.36618	2.9965	-0.748211	-7.80499
43.6922	975.542	4.9876	5.79263	2.90097	-0.685022	-7.80594
35.2031	959.871	5.28852	6.37475	0.00666517	-4.32127	-7.80723
34.2278	960.881	5.31274	7.31259	-0.3473	-4.51531	-7.80273
36.3556	955.156	5.18061	3.05414	2.96591	-2.39324	-7.80898
35.9635	953.812	5.14517	1.68161	2.70093	-1.87726	-7.80444
44.5378	957.075	5.01312	3.67259	3.19481	-1.08413	-7.80667
40.0487	954.772	5.10876	3.36021	1.77744	-1.61416	-7.80466
40.4455	956.115	5.11197	4.22004	1.8066	-1.82443	-7.8081
41.81	956.431	5.07495	4.30626	1.88126	-1.83064	-7.80615
41.0135	953.757	5.07594	3.46946	2.14244	-1.36672	-7.80813
35.1679	951.133	5.05691	2.12429	2.49273	-1.59907	-7.80797
39.7936	860.078	5.10539	0.417467	0.694252	-0.775349	-7.80884
41.153	860.402	5.06768	0.0949238	0.322948	-0.131088	-7.80664
41.5487	861.743	5.0567	0.934507	0.888761	-0.627428	-7.80748
16.0782	857.561	5.01383	9.76517	3.20486	-3.30524	-7.80067
16.5989	856.254	5.02862	13.2688	3.41063	-2.90828	-7.81011
16.9616	858.649	5.03072	8.08432	5.23931	-4.12533	-7.80046
18.3504	858.425	5.0879	8.17279	10.1926	-5.5799	-7.80868
17.9913	856.032	5.05031	13.097	0.574869	-5.05172	-7.7875
18.8789	857.115	5.08993	11.0384	8.34604	-9.60727	-7.8038
24.1713	862.36	6.02464	-8.69372	-25.2164	20.3721	-7.86168
23.177	863.229	5.7095	-8.87198	-7.44161	48.1092	-7.39162
17.6379	863.457	5.04777	-4.18882	3.53056	-2.55216	-7.79779
17.1329	864.763	5.0261	1.45047	4.33444	0.697692	-7.81068
17.9953	865.865	5.10406	0.68456	-1.92836	5.73226	-7.8058
18.345	868.236	5.28649	3.42578	-2.11274	-5.45302	-7.81889
17.8163	869.531	5.2964	-8.88739	-1.14785	-5.82361	-7.79215
20.5374	869.079	5.78266	-2.70223	4.27894	-20.6844	-7.78367
19.7159	868.01	5.46461	3.88471	-13.0783	-10.3306	-7.75644
18.6523	870.619	5.50835	-15.8082	2.93675	-6.26396	-7.77845
19.9819	870.375	5.8205	-17.6613	9.54249	-13.4152	-7.76863
15.5919	868.673	5.01589	-5.63149	0.671031	-1.61124	-7.80189
14.2174	868.896	4.94428	-4.67111	3.22903	-0.61301	-7.80464
16.455	869.763	5.12072	-7.40108	2.12825	-2.31028	-7.80276
7.7211	872.386	4.95986	2.45583	3.14745	1.64498	-7.80921
10.4793	871.952	4.92205	0.253423	3.21392	1.92589	-7.80215
6.33355	859.103	4.99399	6.63964	1.11594	-1.09929	-7.80845
5.4452	858.019	4.99815	6.63093	1.96382	-1.27713	-7.80104
8.84355	866.057	4.93796	1.12419	2.84355	-1.02737	-7.80827
1.43159	868.46	5	2.61473	-25.2988	-4.62471	-7.58565
2.43335	865.851	5	-0.157628	-0.52825	-0.191917	-7.80808
9.34845	864.751	4.93652	1.95291	2.2557	-1.46034	-7.80773
8.4697	863.663	4.95604	2.8649	2.46952	-1.64301	-7.80655
10.7309	864.529	4.92035	2.06691	3.14156	-1.61666	-7.80677
8.97905	862.357	4.95757	4.46001	2.68085	-1.61561	-7.80675
11.2423	863.224	4.92733	3.42515	2.78074	-1.89528	-7.80719
10.3633	862.134	4.94491	4.33786	1.74701	-1.68308	-7.80563
7.0866	863.884	4.97516	3.06174	2.26399	-1.00063	-7.80801
12.263	860.608	4.95212	5.86122	2.08532	-2.53694	-7.80383
11.895	858.22	4.98011	7.7827	1.31837	-1.64343	-7.80259
12.7819	859.306	4.96792	8.16377	2.06678	-2.25124	-7.80803
10.5076	858.44	4.97979	7.63421	1.77014	-1.6049	-7.80713
9.99305	859.744	4.96969	6.3965	1.87928	-1.70239	-7.80396
10.8773	860.831	4.95414	5.87449	1.69485	-1.70119	-7.80807
20.3915	872.799	5.80605	-16.5905	2.9558	7.91401	-7.76281
21.3439	873.823	5.70757	-3.37271	16.8033	-3.51875	-7.78769
17.737	876.952	5.04141	17.7605	2.3793	4.33658	-7.79932
32.8295	862.164	5.43427	1.43195	0.226225	-4.24156	-7.81054
22.0847	871.237	6.34968	-57.4284	-15.5559	8.63615	-7.23487
27.2956	873.281	4.9197	9.35266	1.42495	-0.951983	-7.77977
27.742	874.568	4.60164	-11.1921	-3.43852	7.60407	-7.80182
25.506	875.355	4.69741	-41.057	-0.194806	-17.4689	-7.34176
26.8251	875.591	4.45419	-25.8853	-20.8364	-4.61991	-7.79633
29.0922	874.877	4.47324	-9.88757	1.00379	5.25339	-7.79526
29.4928	876.2	4.25651	-4.39212	1.76308	1.93041	-7.79997
31.795	875.523	4.43049	-3.23819	1.79434	2.52447	-7.80685
30.8474	876.535	4.26928	-4.28094	2.14221	2.17519	-7.80017
31.9147	871.854	4.84579	3.35349	-0.070789	4.00779	-7.80737
30.032	873.861	4.61858	-4.96681	0.43621	5.98513	-7.8007
30.5529	871.525	4.90633	3.78063	0.418837	4.09108	-7.80321
29.6003	872.545	4.82442	3.60044	1.15096	4.06878	-7.79916
32.3362	873.18	4.70769	-1.58819	-0.11037	4.23524	-7.80321
31.3868	874.194	4.57654	-4.04469	1.12407	4.17971	-7.80456
16.8149	875.885	5.04634	7.88755	0.520964	8.23102	-7.79766
15.4292	876.097	4.99611	6.62489	2.04765	6.15973	-7.80311
14.5298	875.016	4.97638	3.8116	2.29672	6.21994	-7.80784
14.9397	877.408	4.99108	7.67429	0.656563	3.88586	-7.80033
0.68638	877.158	5	-11.5917	4.57088	8.83809	-5.13502
10.8722	874.35	4.93885	2.24183	2.18344	3.24247	-7.80397
9.9873	873.263	4.93568	2.44596	3.38036	2.3463	-7.81004
8.1066	874.782	4.96783	3.97785	2.2794	2.57071	-7.80785
8.60335	873.474	4.95329	2.30168	1.9192	2.29848	-7.80483
30.2975	878.883	4.03592	-9.08136	1.48176	0.0544678	-7.80131
30.6613	880.234	4.03971	0.887155	3.27396	-3.2669	-7.81148
24.7902	877.604	4.28772	48.6605	-24.1855	-4.01997	-7.82116
21.8258	889.853	5.73186	-0.114674	5.49203	-17.4852	-7.78967
23.3154	892.07	6.36517	-65.1031	-12.2337	17.2345	-7.25005
7.74745	885.856	5.02265	7.19148	1.17303	0.287275	-7.80456
10.5358	885.424	5.05619	7.94296	1.33224	-0.289539	-7.80709
9.64665	884.341	5.04077	7.85571	0.578998	0.112589	-7.80387
7.36845	883.468	5.01634	7.44482	0.685782	0.597584	-7.80424
8.25825	884.552	5.02652	7.8269	1.02359	0.289665	-7.80726
9.2591	895.425	4.98664	3.61088	1.7474	0.627983	-7.80742
44.8705	838.888	5.0003	11.2046	2.82375	1.26347	-7.79847
43.8941	839.899	4.99984	11.5521	3.04177	1.58816	-7.80525
44.459	837.547	5.00106	10.3317	2.78196	1.12795	-7.80879
43.0892	837.223	5.0034	10.6136	2.14572	1.51495	-7.79935
42.1119	838.23	5.00314	11.4276	2.55676	1.90414	-7.80563
42.5239	839.573	4.99997	11.3343	2.45034	2.06083	-7.80179
38.7561	852.357	5.04626	2.23888	1.27466	0.529546	-7.80724
39.1599	853.697	5.06176	1.18994	1.04588	0.595516	-7.80803
36.8659	841.958	4.97522	8.9747	3.43968	1.65865	-7.80418
37.4191	839.601	4.99671	11.4191	2.78569	2.43357	-7.80497
37.8349	840.942	4.9868	10.4569	3.05349	2.15558	-7.80421
35.4965	841.637	4.97029	8.87	5.03168	2.05405	-7.80696
36.0478	839.277	4.99888	11.5838	3.62368	2.33232	-7.80301
35.0791	840.294	4.98492	10.1018	5.22457	2.35198	-7.8024
39.3317	790.247	4.92228	-3.70495	-0.520263	0.870098	-7.80563
41.2412	788.218	4.98707	-1.96777	-0.59249	0.711333	-7.80775
41.6414	789.556	4.98932	-2.74751	-0.340432	0.575993	-7.80601
40.6871	790.574	4.96701	-3.4423	0.123003	0.506981	-7.80691
39.8837	787.892	4.96211	-2.20882	-0.653969	1.22217	-7.80685
38.9301	788.909	4.92169	-2.75245	-0.867284	1.02469	-7.80783
49.9061	808.977	5	2.94696	-9.40024	10.417	-5.1345
43.5096	808.688	4.98153	-0.688052	0.421958	0.0108621	-7.80746
44.8683	809.012	4.997	-0.542422	0.21377	-0.0665006	-7.8062
43.1133	807.347	4.98008	-1.37246	0.212413	0.36687	-7.80686
47.188	808.324	5	-0.771311	0.503482	0.0341967	-7.80799
45.8301	807.998	5	-0.80586	-0.0943439	-0.0435577	-7.80825
45.3117	789.192	5	-4.31182	1.47301	4.17801	-7.80704
46.2677	788.186	5	-0.78843	-4.19062	3.46859	-7.80985
45.7044	790.541	5	0.194173	4.23248	2.40113	-7.80449
47.0658	790.868	5	1.12632	-0.366363	0.345353	-7.80417
48.5928	787.5	5	33.4496	-6.51526	9.9497	-8.08507
49.3869	790.18	5	-10.301	2.87571	-10.1432	-5.1345
47.6308	788.514	5	2.31449	0.616691	0.751338	-7.80615
48.0279	789.855	5	-3.31721	-7.20489	-7.17809	-7.6964
49.952	787.826	5	18.3634	9.02208	2.34877	-2.87993
48.7761	813.685	5	9.23616	-31.5854	10.2566	-4.98372
47.8141	814.699	5	2.18877	-13.6211	0.867448	-7.69714
48.2111	816.038	5	-2.80344	-7.67581	-7.77088	-7.69684
49.5702	816.366	5	-10.027	2.93045	-10.0144	-5.13541
45.3203	819.08	5	4.23607	0.872273	-0.922752	-7.80603
44.3556	820.097	4.9902	3.64849	2.41085	-0.879818	-7.80508
11.4601	828.904	4.96777	3.02567	0.121259	0.91405	-7.80606
12.3475	829.986	4.96515	3.89661	-1.4199	1.18095	-7.80918
13.7318	829.775	4.97516	4.24707	-1.58068	1.33252	-7.80318
14.2341	828.47	4.9965	3.79253	-0.999281	2.1099	-7.80859
0.124409	811.068	5	4.54407	-11.3143	-8.90515	-5.13517
16.116	826.963	5.09133	3.31027	-2.81744	5.18994	-7.80515
15.2279	825.88	5.08139	2.04868	0.319617	3.74331	-7.80904
2.03021	836.502	5	-4.20043	-6.54248	7.792	-7.69671
2.90981	837.589	5	5.25871	-0.0350983	-0.55026	-7.80763
4.2983	837.368	5	5.3904	-5.20411	2.4398	-7.80863
4.79659	836.073	5	3.42555	-3.62182	3.82189	-7.80762
0.271014	834.33	5	18.7541	8.72383	-1.66096	-2.87954
49.6924	833.822	5	18.3634	9.02208	2.34877	-2.87993
46.2411	839.217	5	7.7992	0.468589	2.16375	-7.81252
47.2032	838.204	5	0.0837364	-0.609211	0.0625669	-7.80751
22.7504	819.864	5.8084	3.21605	-0.454639	-16.9993	-7.68026
31.9295	812.088	4.21908	1.37132	-3.25754	-1.77007	-7.8028
30.226	810.421	3.87791	-2.37292	-1.06859	-6.11269	-7.80461
31.565	810.749	4.08415	-3.15885	-2.02202	-4.01593	-7.79517
33.2801	812.419	4.35951	0.791862	-1.52781	-0.813088	-7.80707
35.9866	813.087	4.59769	0.109464	-0.385324	0.26442	-7.8072
35.5982	811.746	4.54783	-0.277766	-0.115896	-0.179719	-7.80547
34.2475	811.412	4.41748	-0.401626	-0.874667	-0.491288	-7.80914
28.6296	822.4	5.26228	-0.19424	9.22886	6.65561	-7.78542
27.2927	822.013	5.45197	-0.881913	28.1636	7.22282	-7.78392
32.1541	808.391	4.08103	-8.4449	0.694484	1.07031	-7.78922
34.8211	809.057	4.46088	-2.24173	1.40385	0.759697	-7.80993
33.8668	810.071	4.3496	-2.74814	-0.704279	-0.395847	-7.79955
32.5241	809.735	4.16643	-2.74215	1.78401	-1.1776	-7.81252
33.6319	805.022	4.4003	-1.69394	-3.04231	5.96156	-7.79701
32.6896	806.033	4.23314	-5.67575	1.24679	6.64596	-7.80175
34.9786	805.365	4.54915	-0.682918	-0.812651	3.51023	-7.80981
35.382	806.702	4.56225	-2.56069	-0.579421	2.58738	-7.807
34.4319	807.714	4.43038	-4.32395	0.630517	2.33906	-7.80169
33.0911	807.374	4.25089	-5.01176	2.32147	3.27744	-7.81094
25.9058	807.982	3.179	7.85137	-41.1199	6.16063	-7.3899
26.9746	807.083	2.96964	-56.8351	-14.5301	-15.3489	-7.23665
26.5122	805.772	3.09696	-47.7562	-32.0941	14.9918	-7.25987
26.238	809.291	3.42501	-8.07021	-22.8144	14.2329	-7.86741
27.5691	809.715	3.47525	-2.97412	7.89629	-0.616046	-7.7967
28.2751	807.41	3.20002	-37.0345	-5.72019	-4.53204	-7.72409
30.8272	808.053	3.82637	-9.16656	7.2006	0.960478	-7.81142
29.896	809.082	3.68206	-13.5687	-1.60479	-6.31195	-7.77532
28.5819	808.751	3.39761	-13.7969	-1.54933	-9.87481	-7.76938
29.1376	806.358	3.47657	-18.34	14.8866	12.9547	-7.77411
30.4504	806.704	3.76829	-16.8822	5.09967	8.1309	-7.77286
10.4486	818.033	5.0643	4.14524	0.341464	0.839845	-7.80854
3.52064	819.109	5	1.41504	2.4297	1.75775	-7.80528
4.02153	817.803	5	2.31179	0.173836	-0.362694	-7.80905
3.14192	816.718	5	-0.0566828	-0.577886	0.0899958	-7.8086
2.01799	823.023	5	-4.20446	-6.49852	7.80344	-7.69711
21.5392	822.448	6.08107	-42.3129	-7.73167	7.09611	-7.72346
21.1257	823.759	5.91554	-14.3604	-1.45638	16.723	-7.7747
23.84	823.254	6.27169	4.27659	-43.3248	4.00769	-7.39577
24.3439	825.527	5.86033	-2.12523	-13.6865	-32.5238	-7.43529
23.4178	824.544	6.06864	-2.88586	-25.6524	-7.43679	-7.88712
25.7595	825.424	5.75473	2.92085	-8.68044	2.42098	-7.46463
26.7029	824.394	5.68722	15.7419	11.1679	1.84429	-7.89044
26.3626	823.028	5.76467	-3.66962	15.2139	-4.24135	-7.85632
25.0877	822.606	6.09467	-26.3651	7.96407	-10.3495	-7.42364
19.8227	810.461	4.8995	-11.9222	7.32703	0.0232013	-7.78979
18.9629	809.361	4.92528	-4.7053	5.42021	-1.34334	-7.80589
48.2722	824.768	5	33.5226	-5.68625	10.1512	-8.08433
47.3101	825.782	5	5.66813	-0.436974	1.15494	-7.80921
5.8622	900.856	4.99259	3.37933	1.19922	0.515912	-7.80558
3.59394	899.982	5	1.89935	2.33018	2.49397	-7.80568
3.21522	897.591	5	0.316438	-0.0941529	0.322105	-7.80758
4.09483	898.677	5	2.90181	-0.0969478	0.126164	-7.80897
1.71257	901.506	5	34.9769	-7.368	-6.65608	-8.08447
2.21346	900.201	5	2.4946	-13.1687	0.449404	-7.69739
30.1179	836.63	5.104	12.3336	17.7029	5.34551	-7.80542
29.1732	837.675	5.12728	3.409	18.2202	1.7256	-7.76838
27.8038	837.361	5.2409	3.11018	40.8059	2.05056	-7.77268
29.6912	835.276	5.13763	14.7092	16.19	10.1523	-7.79793
28.3166	834.93	5.20151	13.3196	14.5018	19.0729	-7.76431
27.3985	835.98	5.27667	-9.91506	33.2392	20.4019	-7.74246
5.19925	851.932	5.00227	5.11779	1.78211	-0.15791	-7.80943
6.58485	851.716	5.00939	5.30756	1.69223	-0.0461169	-7.80365
0.64973	836.721	5	-11.624	4.63306	8.84669	-5.13533
0.148842	838.026	5	4.54378	-11.314	-8.90562	-5.13517
2.78764	841.285	5	-0.0531697	-0.555196	-0.154651	-7.80888
1.40716	841.502	5	2.74767	-24.4275	-4.97536	-7.58614
3.66725	842.37	5	3.3786	0.0925907	-0.800167	-7.80992
13.4893	837.145	5.05018	2.29649	0.155021	0.0398362	-7.80505
13.109	834.757	5.00102	3.19345	0.155634	-0.461992	-7.80876
12.6044	836.062	5.01819	2.80103	0.378971	-0.17202	-7.80722
14.4914	834.536	5.01345	2.68449	-1.50033	-1.64198	-7.8038
15.3742	835.618	5.05627	1.40295	-0.822929	-1.78095	-7.80872
14.8707	836.922	5.07571	1.89448	0.164969	-0.595041	-7.80914
1.44382	881.94	5	2.61463	-25.2987	-4.62453	-7.58565
1.82253	884.331	5	3.02431	-24.6971	-4.31165	-7.5862
0.942925	883.244	5	10.732	-32.5386	-6.76863	-4.98312
0.930705	869.765	5	10.7321	-32.5386	-6.76852	-4.98312
49.2037	874.784	5	9.28446	-30.6346	10.5009	-4.9839
48.8067	873.443	5	1.97523	-23.377	6.77151	-7.58641
46.4855	874.131	5	1.56344	0.510464	0.51694	-7.80712
47.4475	873.117	5	-0.00973764	-0.476312	-0.0880072	-7.80782
49.9978	877.464	5	18.5248	9.06	2.45975	-2.87951
48.0125	870.764	5	-3.29485	-7.22691	-7.19845	-7.69649
47.6155	869.423	5	2.23473	0.556958	0.728621	-7.80633
48.5776	868.409	5	33.4446	-6.5105	9.95212	-8.08506
49.3717	871.089	5	-10.2995	2.88287	-10.1407	-5.1345
49.9367	868.735	5	18.3634	9.02208	2.34877	-2.87993
46.5466	882.858	5	1.53311	0.434255	0.525171	-7.80678
42.175	868.115	5.01452	1.06118	-0.373657	0.377939	-7.80624
43.5346	868.442	5.0059	1.20898	0.0290988	-0.0498384	-7.80682
44.4989	867.428	5.00338	1.37341	0.290765	0.0706776	-7.80572
44.0989	866.089	5.00644	0.400351	-0.321691	0.526012	-7.80867
42.3415	864.424	5.03267	0.961779	0.0996131	-0.486383	-7.80702
42.7394	865.763	5.02149	0.545176	-0.536181	0.119678	-7.80747
41.7754	866.775	5.02828	1.01498	-0.445592	0.317851	-7.80805
35.2	870.164	4.97667	2.33752	-1.92844	2.0755	-7.8015
31.4136	882.915	4.20171	8.01046	-0.0992928	0.332899	-7.80624
31.8122	884.251	4.31917	1.83158	-1.23198	2.89715	-7.8025
27.3348	881.906	3.93569	5.84164	7.97468	-10.6456	-7.87327
27.679	883.249	4.1533	25.3009	5.49446	-5.97803	-7.88502
29.6835	881.238	3.99317	2.56934	1.32465	-4.00417	-7.7921
28.328	880.899	3.88908	3.06138	14.8558	-5.32964	-7.79588
30.0508	882.583	4.11245	10.1745	0.0335195	-1.98489	-7.79948
29.06	883.578	4.19301	17.6328	2.62862	1.23114	-7.78816
23.9663	888.51	5.48066	84.2468	29.5173	25.3324	-7.53564
23.2162	889.685	5.83891	4.91899	-2.40857	-15.583	-7.68192
23.9052	890.817	6.21307	-42.3595	-33.5265	-7.16335	-7.28958
34.7188	881.237	4.3779	1.79385	0.520216	-0.593763	-7.80787
33.7495	882.245	4.31971	3.3843	-0.0791842	-0.356724	-7.80766
36.9674	871.829	4.90074	0.30015	-0.917367	2.06301	-7.8042
36.5603	870.493	4.96234	2.46719	-0.511482	1.57105	-7.80933
37.7689	874.511	4.79768	-0.562136	0.424692	1.67062	-7.80742
40.4851	875.171	4.88537	-0.479385	0.801716	1.20602	-7.80678
38.1688	875.851	4.76202	-0.897444	0.570709	1.19584	-7.80795
39.5248	876.183	4.8197	-0.83437	0.477621	1.03646	-7.80742
40.6474	871.478	4.96834	0.630003	-0.0996839	0.915152	-7.8089
39.2886	871.149	4.96049	0.363018	-1.07759	1.33483	-7.80575
38.3259	872.16	4.9122	0.398243	0.16371	1.86997	-7.80877
38.7286	873.499	4.87268	-0.467817	0.530622	1.55073	-7.8051
41.0476	872.818	4.94919	-0.115013	-0.172363	1.12065	-7.80622
40.0861	873.83	4.90377	-0.398263	0.666721	1.35164	-7.80737
31.097	869.185	5.10931	5.64741	-0.728632	3.90018	-7.79984
32.4601	869.511	5.04701	5.45926	-1.16782	3.12175	-7.81069
31.6595	866.852	5.26857	6.98718	-3.91922	0.478922	-7.79723
30.6814	867.852	5.2333	9.83231	-0.232265	3.41747	-7.81251
29.3152	867.53	5.32569	9.82243	-2.4107	4.96515	-7.79025
40.9487	945.021	4.99212	4.21884	1.57973	-0.470593	-7.80627
40.547	943.679	4.97777	4.75406	1.50881	-0.456237	-7.80785
39.983	946.036	4.99767	3.98116	1.78179	-0.49304	-7.80743
28.9874	913.632	5.20685	14.1205	-6.97795	-15.013	-7.77215
30.4113	257.876	4.93623	24.3239	-1.80265	-0.418502	-7.80076
28.5173	259.887	4.70557	10.7457	-2.94296	18.2129	-7.75557
28.0156	258.571	4.83925	52.8183	4.23886	5.29705	-7.70707
29.0224	257.572	4.94834	30.2032	-4.09144	-4.74946	-7.76031
18.5231	256.665	5.08013	4.71229	3.0895	0.632357	-7.80973
19.0223	255.357	5.12686	-1.19469	1.89869	-2.80341	-7.80034
12.4681	258.845	5.03574	4.44352	1.01597	-0.622305	-7.80694
12.9762	257.541	5.0477	4.74109	1.06273	-0.7117	-7.80658
43.7914	268.507	4.99846	3.56505	1.11874	0.275467	-7.80293
42.8244	269.519	4.99594	3.36362	0.847683	0.119838	-7.80856
40.8274	262.82	4.99251	3.96951	1.3868	0.147609	-7.80709
42.7574	260.791	4.9984	4.91974	1.17721	-0.0849818	-7.80801
41.3937	260.465	4.99621	4.83918	1.60506	0.143621	-7.80649
40.4263	261.479	4.99269	4.36173	1.49992	-0.0376301	-7.80695
38.4977	263.51	4.97612	4.06785	1.72356	-0.319387	-7.80783
39.861	263.834	4.98592	3.85874	1.40891	0.0548062	-7.80597
46.7451	274.195	5	0.0784999	-0.31493	-0.208899	-7.8082
49.2342	269.813	5	-10.2849	3.79799	-9.89911	-5.13425
49.6313	271.154	5	2.9471	-9.40138	10.4172	-5.13449
48.1653	283.251	5	2.59634	-13.0752	0.593551	-7.69715
47.3712	280.57	5	-0.02066	0.426544	0.163855	-7.80689
46.8062	282.923	5	0.481929	0.21129	-0.424791	-7.80659
46.4091	281.584	5	1.73047	-0.317217	0.460973	-7.80827
48.7303	280.896	5	1.91317	-24.3626	6.49241	-7.58583
49.1273	282.235	5	9.53194	-31.1717	9.81462	-4.98369
40.9674	280.274	4.98937	0.664364	-0.157198	0.580118	-7.80682
42.327	280.602	4.99769	0.716732	0.149122	0.393728	-7.80888
40.5672	278.935	4.98413	1.60383	0.170256	0.211904	-7.80837
41.7647	282.956	4.99668	0.36538	0.39411	0.301492	-7.80714
42.1636	284.296	4.99867	-0.204506	0.19781	0.259811	-7.80754
39.8445	284.982	4.9771	-0.279003	0.599816	0.288754	-7.8068
41.2029	285.311	4.9926	-0.288686	0.0587301	0.237339	-7.80709
32.937	295.782	4.74868	2.46082	0.0221331	-1.59392	-7.80634
32.5541	294.44	4.68653	-0.994185	-0.108147	-1.49021	-7.80235
34.2958	296.108	4.82048	1.6913	-0.571265	-0.714115	-7.80785
39.5111	292.381	4.95924	-0.550008	0.76984	-0.794897	-7.80569
40.4714	291.364	4.97592	-0.383453	0.298286	-0.796862	-7.80856
40.0772	290.024	4.9722	-0.825801	0.11524	-0.43645	-7.80693
33.1349	292.086	4.68294	-3.61261	-0.287508	-0.00777959	-7.80732
34.0922	291.073	4.73878	-2.91212	-0.373134	0.146378	-7.80702
33.5185	293.429	4.72785	-1.2119	0.188504	-1.2181	-7.80973
36.5699	286.687	4.87703	-1.33405	0.203488	0.204689	-7.80673
34.6539	288.716	4.76506	-1.47961	0.0333144	-0.220256	-7.80733
32.513	285.71	4.57803	-3.49872	0.00480707	1.11184	-7.80199
35.2139	286.36	4.8048	-1.58523	0.364384	0.616613	-7.80786
32.907	287.049	4.61672	-2.0562	0.34291	-0.00131443	-7.81013
34.2594	287.377	4.73518	-2.03205	-0.230878	0.202362	-7.80509
31.1669	285.381	4.41202	-4.02571	1.99188	1.91218	-7.81072
30.2321	286.405	4.26218	-7.47716	-0.327834	-0.640011	-7.78801
28.9006	286.084	4.00973	-7.64229	5.72501	-1.68576	-7.8133
33.0544	283.354	4.66249	-0.243731	-0.216882	2.88754	-7.81054
35.7709	284.003	4.84837	-0.771743	-0.0508906	0.903079	-7.80579
34.8151	285.02	4.78538	-1.29867	0.404532	1.01519	-7.80657
33.4614	284.691	4.68259	-1.74187	0.427991	1.83396	-7.80621
36.4812	277.959	4.89037	2.05912	0.00538926	-0.1632	-7.80679
41.4853	248.045	5.01222	7.84431	1.76771	0.746086	-7.8071
42.0538	245.693	5.01292	7.31526	1.95026	0.191965	-7.80601
42.4586	247.036	5.00947	7.43543	1.70821	0.453738	-7.80495
40.6871	245.373	5.02187	7.4598	1.47898	-0.0892052	-7.80489
39.7127	246.381	5.02701	8.45928	1.02798	0.207161	-7.80688
40.1183	247.723	5.02022	7.86037	0.742535	0.564124	-7.80442
11.3464	292.133	5.00296	2.27984	2.03122	1.11552	-7.80835
9.4626	293.655	5.0179	3.01431	1.83287	0.649225	-7.80812
