47	13
15.5428	263.888	5.0523	11.5525	1.82471	4.47452	-7.80339
16.9103	261.47	4.98108	5.44897	4.04825	3.79721	-7.80752
14.8174	262.684	5.02824	8.26154	2.24433	4.60869	-7.80325
15.5076	261.466	4.99771	5.2166	2.40392	4.1679	-7.80298
48.705	238.085	5	9.52585	-31.6367	10.1595	-4.98361
33.3689	245.693	4.62648	-9.64762	0.316129	2.24752	-7.79799
35.6574	244.987	4.79123	-5.51578	1.0699	1.91261	-7.80418
34.3042	244.664	4.70017	-6.48556	0.761081	3.43403	-7.80548
36.0587	246.325	4.83446	-3.30069	2.04946	0.138279	-7.80962
27.1606	238.202	5.24418	-5.36713	32.8917	-17.9023	-7.7476
30.7026	241.397	4.63554	7.72223	-10.849	2.44018	-7.78463
29.759	242.42	4.5286	14.268	-6.59052	6.99182	-7.80512
43.9277	193.51	4.98625	7.45619	2.28464	-0.29668	-7.80102
43.513	192.171	4.98227	7.58743	2.27611	-0.474041	-7.80659
44.4755	191.15	4.99327	6.9854	2.85519	-0.560522	-7.80347
45.8453	191.46	5	4.67809	-0.152697	0.694969	-7.81037
39.391	191.244	4.92409	8.65293	0.0953885	-1.58279	-7.80683
38.019	190.945	4.90804	9.09457	-0.259689	-2.05765	-7.80243
37.6062	189.607	4.92454	8.63622	0.350512	-3.04254	-7.80458
40.3569	190.227	4.94741	7.72411	0.519899	-1.76235	-7.80529
41.1779	192.884	4.94168	8.15164	0.631168	-0.946226	-7.80767
41.594	194.221	4.94285	7.01472	0.406952	-0.555755	-7.80391
40.632	195.241	4.91477	7.07454	1.13781	-0.105924	-7.80886
39.8072	192.581	4.91749	8.20869	-0.206038	-0.893688	-7.80276
38.8422	193.598	4.88596	9.00765	0.818971	-0.109822	-7.80826
39.2629	194.935	4.88123	6.98097	0.44723	0.513438	-7.80213
34.6099	196.359	4.69794	6.15235	-0.151061	2.8579	-7.80181
36.5063	194.312	4.81572	10.2608	0.370012	0.950599	-7.80941
32.2975	197.076	4.54977	3.09826	1.21018	4.60061	-7.80509
33.6626	197.386	4.6227	3.79618	1.31101	2.86586	-7.8071
30.97	193.103	4.7254	20.3566	-1.78351	0.0649994	-7.78723
30.5387	191.77	4.80106	23.5396	2.74989	-7.41181	-7.78239
34.7041	192.675	4.81864	14.2049	-0.538919	-0.297493	-7.80745
35.1334	194.008	4.78624	10.5165	-1.41357	1.23661	-7.79689
34.173	195.028	4.723	11.0351	0.124489	2.38671	-7.81024
32.7991	194.723	4.68531	11.1334	-1.22738	3.56374	-7.79258
32.3547	193.394	4.74032	18.5919	0.168668	0.990364	-7.80672
33.3258	192.379	4.80627	15.2465	-1.58379	-0.967758	-7.79468
26.4414	190.832	4.64708	-0.699466	30.2775	-27.9434	-7.78597
29.1459	191.487	4.79678	29.6459	12.9069	-14.437	-7.77781
31.7197	187.048	5.04091	6.04918	2.67017	-3.01965	-7.80697
32.6971	186.04	5.05803	3.52745	-0.768041	-6.27932	-7.80169
34.4577	187.679	4.9679	7.78538	0.613407	-6.47159	-7.80496
34.063	186.338	5.01288	3.95148	0.679497	-6.48297	-7.80313
27.1199	188.392	4.81491	-36.5236	27.092	11.0557	-7.71412
29.7567	189.098	4.94064	10.2337	15.8029	-7.06106	-7.81341
27.4254	189.786	4.77799	3.49806	40.2176	-12.9959	-7.76518
28.7859	190.127	4.85196	4.81644	12.9038	-13.2991	-7.75742
42.4169	196.888	4.95276	5.34849	1.88305	0.406412	-7.80878
43.376	195.867	4.97432	4.77216	0.91958	-0.247028	-7.80365
47.888	210.566	5	2.234	-13.3356	0.821844	-7.69692
48.8413	209.544	5	9.54863	-31.6578	10.103	-4.98362
46.5261	210.252	5	1.74391	1.6	-2.05899	-7.80634
46.1176	208.915	5	2.15241	-0.117713	0.10409	-7.80782
44.8852	204.905	4.99627	2.45491	0.222554	-0.74236	-7.80749
45.2958	206.24	5	4.09255	0.822384	-0.588944	-7.8068
40.7919	203.971	4.9331	2.45722	1.94658	-0.818951	-7.8061
41.7461	202.946	4.94541	2.86192	2.12047	-0.663231	-7.80726
43.111	203.257	4.97331	2.77854	1.35248	-0.616021	-7.80544
43.5202	204.595	4.9839	2.4798	1.43179	-0.739077	-7.8073
40.654	207.672	4.98368	2.93629	1.60241	-1.28854	-7.80796
40.246	206.334	4.95685	2.25949	1.47481	-1.03651	-7.80572
41.2007	205.309	4.95667	2.38122	1.75831	-0.813873	-7.80816
42.5656	205.619	4.97831	2.39454	1.5741	-0.756074	-7.80623
44.7515	208.605	5.00092	3.37037	2.4971	-0.713939	-7.80749
44.3413	207.266	4.99835	2.93276	2.50271	-0.670652	-7.80476
42.9754	206.957	4.9911	2.86345	1.5244	-0.776602	-7.8075
42.0196	207.981	4.99458	2.78395	1.89783	-0.785956	-7.80624
25.1005	235.195	5.88892	-10.4948	-1.16972	8.1041	-7.783
25.9136	234.133	5.50447	-4.05706	5.42916	10.8678	-7.77365
27.248	234.436	5.21381	-6.05904	9.92695	12.0487	-7.78131
27.7079	235.766	5.14348	-19.8967	13.5167	8.47811	-7.77493
25.6155	236.492	5.90591	-37.4018	-5.08389	12.7398	-7.72441
26.8485	236.829	5.39967	-33.0023	19.7143	3.43752	-7.71047
15.5203	222.735	4.99334	4.87099	2.36476	-0.279947	-7.8039
16.9227	222.738	4.9849	4.94413	2.30572	-2.52846	-7.81002
17.6444	221.534	4.95532	12.6097	1.73154	-1.68478	-7.8139
25.73	230.425	5.17606	44.3116	16.666	10.1337	-7.75213
24.2971	230.178	5.22942	48.3241	40.0438	6.09926	-7.6418
24.5217	221.141	4.44585	36.6102	-18.4813	13.6942	-7.7962
40.51	198.936	4.89681	4.16372	1.43312	0.722733	-7.80665
41.335	201.608	4.92732	3.01207	1.70817	-0.249878	-7.8068
35.9779	196.669	4.74858	6.4099	1.07394	2.02971	-7.80901
36.9337	195.647	4.80216	6.9959	0.0172677	1.5781	-7.80136
38.3028	195.954	4.84209	7.07401	0.834487	0.95268	-7.80947
38.7251	197.29	4.84346	5.08314	0.823854	1.08151	-7.80434
38.3315	208.387	4.98361	3.18322	1.29496	-1.568	-7.80747
39.1466	211.054	5.05086	3.95635	1.21626	-0.909159	-7.80808
40.1055	210.033	5.02404	3.36772	1.14027	-1.16443	-7.80669
39.6971	208.695	4.9979	3.12294	1.348	-1.39968	-7.80631
38.8812	206.024	4.9282	2.39448	1.92755	-1.35624	-7.80819
37.9256	207.048	4.93913	2.25265	1.46943	-1.6848	-7.80508
39.4274	203.66	4.89512	2.26252	2.13805	-0.424748	-7.80783
38.4744	204.686	4.88829	1.44488	1.61599	-1.00885	-7.8058
37.1107	204.377	4.84161	1.18535	1.93314	-0.617051	-7.80861
34.0914	198.719	4.62446	2.49415	1.77819	1.88046	-7.80868
33.1493	199.751	4.56416	-0.038334	1.65545	0.74096	-7.80109
27.5661	218.254	4.44919	-22.6103	8.93924	2.75416	-7.7886
25.824	216.603	4.24576	-25.5724	-6.95498	7.24966	-7.73516
28.0032	215.884	4.82599	-7.87041	3.40902	15.9539	-7.76602
27.1511	216.914	4.47199	-26.1971	4.96592	11.4328	-7.7581
17.5326	209.397	5.15619	-8.72831	5.90159	0.608799	-7.78627
17.5831	206.951	5.13355	-4.25623	6.45395	-8.2215	-7.78454
16.8731	208.164	5.09045	-1.7016	9.30254	-4.18092	-7.81133
15.4769	208.16	5.00581	-1.47051	7.07988	-4.45414	-7.79278
33.6747	209.808	5.02474	6.16147	-0.14662	-2.38374	-7.80653
33.2756	208.47	4.94522	3.04259	0.45559	-2.99364	-7.80116
19.0902	204.525	5.12818	15.5406	8.42287	-13.516	-7.77876
19.8814	203.342	5.06543	35.188	11.4409	-8.06435	-7.76971
23.0087	207.122	6.14108	-20.7171	-10.4223	3.28862	-7.72278
21.3197	203.388	5.10228	38.9919	29.1451	-10.078	-7.67081
21.9119	204.656	5.37068	12.2318	21.1673	-0.448821	-7.79135
28.9712	211.219	5.19268	23.1653	0.624305	-9.65983	-7.78275
29.81	213.865	5.16317	18.954	-0.900129	7.93598	-7.80473
32.0725	204.471	4.68928	0.926344	-0.761108	-0.78604	-7.81223
32.4794	205.805	4.77228	-1.11329	-0.484307	-0.475694	-7.80537
0.069235	421.22	5	11.8234	-34.257	0.00367953	-4.98327
2.86465	421.22	5	4.39364	-0.399785	-0.00950179	-7.80525
2.16577	422.43	5	0.181965	0.19889	0.294361	-7.80724
0.76812	422.43	5	3.70994	-25.4496	-0.31633	-7.58621
0.76812	420.01	5	3.57471	-26.0046	0.00355402	-7.58594
2.16577	420.01	5	0.0616919	-0.310939	-0.0103195	-7.80759
11.3083	413.951	5.02086	8.75775	0.697398	0.369404	-7.80749
12.7123	416.361	5.02807	9.59027	-2.33487	-0.78481	-7.79599
13.4291	415.158	5.0196	11.6612	-1.15011	0.987276	-7.8115
12.7134	413.953	5.01868	8.89424	-0.65694	1.2011	-7.80147
11.2951	418.781	5.03334	6.90185	1.13415	-2.98907	-7.80826
9.17985	419.998	5.02593	4.83375	1.73186	-1.67789	-7.80716
10.5819	419.989	5.02946	4.90606	1.6693	-2.93809	-7.80546
2.16577	407.905	5	0.21693	0.163908	0.303815	-7.80724
0.76812	407.905	5	3.70996	-25.4496	-0.316842	-7.58621
0.069235	409.116	5	11.9862	-33.6946	-0.319931	-4.98389
2.86465	418.8	5	4.80605	0.118431	0.271233	-7.80478
2.16577	417.588	5	0.195608	0.185231	0.278267	-7.80724
4.27004	418.8	5	4.32859	-0.67203	-2.99203	-7.80715
4.96541	417.582	5	3.73569	-1.47491	-3.55173	-7.81194
6.37035	415.162	5.00497	6.91646	1.57489	-0.156294	-7.79802
6.37075	412.744	5.00316	7.16001	1.63615	-0.298968	-7.79762
7.0793	413.953	5.00688	7.46346	1.15718	-0.167677	-7.80705
44.3359	430.872	4.99793	5.22356	3.02839	-0.107569	-7.80483
42.9683	430.561	4.99471	5.10812	2.92283	0.148051	-7.80699
42.5542	429.222	4.99653	4.95035	3.02528	0.142206	-7.80645
41.7317	426.547	5.00255	6.36588	2.4437	0.14819	-7.80645
43.0999	426.859	5.00124	6.26937	2.14888	0.169794	-7.80562
43.5124	428.198	4.99949	5.12806	2.45339	0.0289878	-7.80513
39.8117	441.034	4.98266	6.59961	2.32088	-1.66361	-7.80577
38.4427	440.727	4.97156	6.40609	2.19344	-1.42275	-7.80675
40.6101	418.843	5.00185	10.9465	1.86044	0.316574	-7.80681
41.5785	417.826	4.99777	10.6465	0.993665	-0.31468	-7.80168
41.1607	416.488	4.99041	11.545	0.92706	-0.399426	-7.80606
39.0088	401.095	4.87642	3.4542	2.2148	-0.315126	-7.8058
38.0516	402.117	4.84388	3.16662	2.60687	-0.166614	-7.80732
39.8247	403.769	4.88508	4.12099	2.6651	-1.36987	-7.80467
38.4588	403.458	4.84901	3.86187	3.11375	-0.911638	-7.80831
33.2747	394.816	5.00314	2.96671	0.257471	-3.37138	-7.80178
34.2365	393.797	5.04575	2.66426	1.59639	-2.77044	-7.80942
33.838	392.458	5.11087	-0.138552	1.04111	-1.71557	-7.80584
23.1925	398.201	4.28461	41.6194	-9.45479	13.9015	-7.78987
20.9501	397.059	4.27225	-9.5614	-7.66348	23.4602	-7.72789
21.7569	398.214	4.38338	32.0599	-6.23364	13.7495	-7.75886
33.6743	396.154	4.93532	6.32847	-0.0162348	-2.97903	-7.80659
34.4885	398.814	4.83542	7.61394	0.88218	0.236733	-7.81146
32.7051	397.167	4.8807	8.95261	-0.32016	-2.55769	-7.80564
33.1195	398.503	4.83192	8.04085	-1.88109	0.334198	-7.797
35.0423	396.46	4.92587	5.43737	0.229303	-1.71757	-7.80768
35.4523	397.797	4.87945	5.57892	0.0227243	-0.953624	-7.80233
29.3487	402.568	4.99094	-8.10727	2.67359	10.6673	-7.79108
28.0028	402.239	5.15793	-7.76217	3.69125	15.4676	-7.76653
32.5859	400.848	4.777	3.49793	-1.2394	4.7127	-7.79399
31.6347	401.87	4.79252	1.70174	2.38317	6.27744	-7.80968
32.152	399.516	4.7963	11.7838	-0.247385	2.6033	-7.81393
30.2737	401.542	4.84615	0.688725	-2.46617	10.4401	-7.78321
29.811	400.217	4.81784	18.623	-1.35864	7.85532	-7.80564
30.7787	399.205	4.79996	12.7675	-6.39403	3.03557	-7.7852
23.9466	409.743	5.1195	-24.5212	5.50511	42.5014	-7.65553
23.4617	408.394	5.27112	64.2966	15.316	35.7068	-7.6442
28.6662	413.665	4.89116	35.2511	3.20158	-5.41064	-7.76881
27.2645	413.362	4.9033	41.3854	15.2461	-11.6729	-7.75406
31.0674	412.969	4.88173	22.9241	-0.500517	-5.10624	-7.79204
29.6818	412.67	4.89178	25.9131	1.6344	-8.19539	-7.78429
29.3069	411.319	4.91798	16.4091	2.48321	-9.87461	-7.78388
19.0426	429.638	4.55572	6.71819	13.9403	5.43505	-7.8067
19.6604	428.398	4.32447	-4.89923	5.63084	-3.29473	-7.80555
15.4547	426.037	4.72362	-4.25866	4.04693	0.913111	-7.79318
14.7621	424.824	4.79834	-1.27069	5.44113	-1.31803	-7.81208
13.3674	424.833	4.89893	-0.897709	3.81961	-0.457891	-7.79782
10.5756	422.413	5.01117	3.28991	3.08927	-1.76828	-7.80989
11.28	421.202	5.01736	3.01621	1.85922	-2.96486	-7.80489
11.2735	423.627	4.98875	1.68739	3.33787	-1.40012	-7.80156
12.673	423.618	4.95064	1.55282	4.5806	-1.70955	-7.81183
12.6804	421.188	4.99526	3.03902	2.32373	-4.02566	-7.80761
13.3717	422.403	4.94595	-0.0298809	2.91192	-3.75736	-7.79965
14.8116	407.905	5.0152	6.63198	0.950553	-0.960371	-7.80329
13.4121	410.324	5.01179	6.10847	1.97678	0.57242	-7.80228
12.7032	409.115	5.01219	6.64467	1.7862	0.439471	-7.80721
13.4082	407.903	5.01245	6.60228	1.3202	0.0126623	-7.80707
12.6874	394.55	5.00186	3.95804	6.00282	-3.84627	-7.81018
13.3738	395.771	4.98606	0.470677	5.28143	-2.551	-7.7989
15.4531	399.426	4.91988	-2.6097	3.52991	2.74831	-7.80492
14.7601	398.209	4.94215	-1.11222	5.22262	0.899662	-7.81053
14.7685	400.645	4.94886	0.820757	3.91614	3.73078	-7.80845
13.3695	400.639	4.97853	0.896578	3.54665	2.68338	-7.80392
21.6996	410.403	5.00445	-46.9611	-34.1891	-0.796837	-7.33677
20.9942	411.593	4.94151	-67.0895	-5.34448	22.4457	-7.3104
14.8244	412.753	5.00265	7.7389	0.965444	3.95904	-7.80763
15.5235	406.696	5.01401	10.135	1.27656	0.203063	-7.81085
17.6415	407.907	5.03888	12.3191	0.608974	-2.66503	-7.81426
16.9298	406.701	5.02432	10.4982	-1.68463	0.254804	-7.79507
17.6441	405.494	5.01558	14.9489	3.96512	6.42404	-7.7959
19.0585	405.507	5.05186	17.5976	9.26775	12.0235	-7.78936
21.0552	401.769	4.89084	-5.77755	-1.06571	-20.4574	-7.75952
21.8019	400.574	4.78364	24.9679	-3.70319	-16.641	-7.77292
23.8534	401.688	5.26886	2.76143	-2.22012	-15.3711	-7.79213
23.2253	400.505	4.88517	32.7141	0.245374	-22.624	-7.69086
21.1046	404.232	5.17595	-4.22267	33.2677	2.15894	-7.77621
21.8218	405.454	5.37489	-10.077	30.804	14.491	-7.80976
23.143	405.316	5.74949	-33.1475	11.9363	10.6739	-7.40091
21.7193	402.955	5.14639	-28.6116	11.4045	-22.1028	-7.71239
23.6371	403.985	5.8764	-44.6668	-29.9556	-34.9155	-7.22143
23.0574	402.832	5.4522	-28.015	-10.3419	-26.1334	-7.71813
24.7891	414.058	4.86773	74.0224	48.1358	-27.0002	-7.5698
24.5175	412.641	4.93496	13.0355	42.0783	-20.765	-7.795
23.2098	412.156	4.93513	-13.0856	12.2457	-13.517	-7.43693
23.7163	415.161	4.79723	106.801	52.2039	-18.3573	-7.33625
21.8905	412.699	4.90523	14.1983	-27.869	13.1985	-7.41531
29.0864	415.008	4.88485	32.0143	-1.49529	1.85925	-7.76877
25.8992	420.44	4.21588	-2.11405	2.90377	9.73111	-7.77554
27.2338	420.757	4.49448	-4.17806	6.65104	11.4285	-7.78419
28.1263	419.709	4.72229	4.21545	5.52022	13.0117	-7.78043
21.9879	417.585	4.56697	26.0803	13.3847	-12.8194	-7.77735
23.1537	420.021	3.94988	0.147908	4.61461	-6.25607	-7.77389
21.7619	419.963	4.07479	0.603375	5.74064	-12.6992	-7.77985
21.1685	418.745	4.4263	15.4942	9.3053	-16.2249	-7.77689
19.8874	416.357	4.82665	48.177	-2.63817	-8.77035	-7.7477
21.342	416.343	4.75466	54.9537	9.89765	-16.7419	-7.67062
19.8464	413.957	4.90657	48.7507	-1.61797	17.1267	-7.72939
19.1408	415.168	4.90098	36.5078	-15.589	3.29999	-7.73416
22.1435	415.125	4.81804	99.1347	17.9398	-7.57827	-7.48798
21.3051	413.954	4.87794	58.0062	-8.6985	16.781	-7.76536
23.4744	423.548	2.97646	-37.4482	-36.7207	-7.95786	-7.22552
22.7912	424.765	3.07007	-58.2874	-5.82178	13.93	-7.21359
23.6963	425.794	3.45906	10.2752	-28.1951	5.69591	-7.40718
33.0831	423.337	4.99356	4.54988	4.07391	0.601977	-7.79785
31.7149	423.027	4.959	4.68823	7.53134	-0.176368	-7.8161
27.8545	427.171	4.69462	36.9807	0.616727	-7.60894	-7.73203
28.3249	428.484	4.84141	5.37467	-7.62538	9.27148	-7.78479
24.0489	474.231	5.70959	68.2186	23.0846	-26.8696	-7.63853
23.2191	473.105	5.94182	36.5083	-6.43013	0.840691	-7.80808
23.2979	475.482	5.57231	14.1267	19.8709	-34.1065	-7.68946
21.8902	475.58	5.49654	8.99568	13.8807	-16.163	-7.78139
21.1352	474.405	5.55855	11.9671	-2.39725	-4.73146	-7.77946
21.7933	473.186	5.80229	30.3586	2.34813	4.88039	-7.77913
22.8271	470.831	6.60728	-63.87	-3.98998	15.4683	-7.21551
24.8449	469.859	6.51296	-53.2912	-15.8343	21.9903	-7.24342
23.4979	469.613	6.72835	-44.1488	-36.255	-8.78515	-7.2343
25.0333	471.248	6.2617	-28.1131	6.342	-24.6634	-7.38642
23.7528	471.876	6.31725	9.5009	-21.942	3.87331	-7.39633
4.27524	479.323	5	6.49865	-3.00156	0.575599	-7.80807
9.20265	480.532	5.03349	10.1152	1.97993	-0.515736	-7.80697
8.4913	479.323	5.02258	9.57582	1.8181	-0.130216	-7.8027
7.0852	479.323	5.01057	9.47342	2.11216	-0.241455	-7.80632
0.76812	487.796	5	3.57471	-26.0046	-0.00355402	-7.58594
0.069235	481.744	5	11.8232	-34.2575	-0.00393747	-4.98327
2.86465	481.744	5	7.75767	-0.48966	0.0056555	-7.80269
0.76812	480.534	5	3.70996	-25.4496	0.316333	-7.58621
2.16577	480.534	5	0.268803	0.112039	-0.289908	-7.80724
16.9706	476.904	5.18388	15.3043	1.80606	4.38367	-7.79537
17.7076	478.104	5.2195	20.722	3.32083	2.58038	-7.79774
16.9924	479.314	5.20051	19.0642	0.251796	0.0469668	-7.78998
13.3997	487.798	5.07942	3.59575	4.98959	-0.786299	-7.79989
28.1986	481.734	5.42616	42.5995	-8.51807	4.60269	-7.76407
28.5908	483.063	5.21842	19.1694	-14.1178	14.5152	-7.73684
33.4834	486.769	4.94545	10.766	0.5886	-2.10628	-7.80231
30.6524	452.622	4.91861	-4.55274	4.86531	-7.03967	-7.78412
26.3075	460.396	5.06638	61.254	18.0481	-8.12922	-7.66639
30.0436	454.988	4.95273	2.28526	2.10344	-12.2256	-7.79086
31.0181	453.971	4.97911	3.30527	5.98651	-8.85731	-7.81147
32.3819	454.28	5.04033	3.43025	3.45359	-8.60218	-7.79083
22.0454	463.612	5.2891	30.9437	13.379	-11.9274	-7.77418
23.4729	463.678	5.35352	32.1319	24.826	-8.96244	-7.76403
21.2209	464.774	5.3854	18.8937	8.70195	-16.3381	-7.77328
21.8184	466.006	5.68154	2.47816	5.12262	-12.4302	-7.7814
19.6145	472.045	5.58768	-10.4709	0.468624	10.3275	-7.78085
21.5151	470.825	6.25395	-39.3755	-7.58403	9.17012	-7.71627
20.9712	472.04	5.88627	-7.87971	-3.58549	18.2995	-7.74313
18.9233	470.828	5.51603	-8.5535	7.11346	2.0524	-7.80573
20.8939	469.591	6.0837	-18.8538	7.85013	-7.60831	-7.7881
19.5681	469.6	5.68402	-17.4121	2.37402	-5.44299	-7.75933
19.1254	478.102	5.28195	22.0665	9.58049	3.44664	-7.79744
19.8118	476.87	5.32765	15.2921	8.55455	0.291102	-7.78724
21.2251	476.836	5.4078	16.1313	23.5807	-3.38606	-7.80725
26.8073	481.356	5.55232	49.1114	-21.1956	11.6515	-7.78191
21.1816	455.172	4.84204	10.4644	-4.33748	-10.1525	-7.73042
19.7773	455.142	4.87585	7.61905	2.73411	-11.8353	-7.80569
19.0932	453.925	4.85713	16.556	-5.43144	-4.71762	-7.79045
26.7503	451.677	4.18729	-36.2542	-15.7669	-15.1263	-7.72502
29.3049	452.301	4.75726	-5.15229	7.62661	-7.45039	-7.80581
23.5231	454.415	4.66349	67.4012	14.6001	36.9092	-7.62141
24.5861	453.521	4.41808	39.3228	-20.3702	13.5475	-7.79128
22.0502	454.036	4.72314	76.1425	36.42	32.608	-7.55992
32.7965	443.163	4.99704	12.1666	0.772284	-2.50651	-7.80387
33.2124	444.5	5.02511	11.1952	-0.900733	0.318649	-7.79675
16.9563	455.124	4.92528	7.68808	2.10368	-2.94309	-7.80867
15.5561	457.55	4.96945	6.3457	2.37049	3.56741	-7.7936
16.9607	457.563	4.97154	6.46829	8.35865	4.95096	-7.81884
17.6471	456.341	4.94435	-2.30533	3.54821	-2.42292	-7.7842
15.5517	455.126	4.93996	7.611	2.09211	-0.924244	-7.80313
14.8462	456.338	4.95793	9.10245	3.85627	1.28477	-7.81171
15.5001	440.567	5.06834	0.146466	6.13013	-4.77477	-7.79266
16.8979	440.563	5.14874	0.177929	9.90429	-5.43132	-7.81287
21.1112	445.417	5.22176	17.7452	-18.9191	-1.63294	-7.74204
19.7004	445.432	5.16942	15.6555	-3.19284	1.35539	-7.81656
14.8198	449.085	4.95837	8.09249	3.2847	4.16943	-7.80462
17.61	439.349	5.19625	-2.68285	6.99042	-9.76416	-7.78294
16.9508	438.119	5.11114	8.18254	6.52307	-11.4029	-7.80193
31.4214	442.859	4.99879	14.1097	2.02575	-4.88603	-7.80403
30.4385	443.871	5.03458	20.2069	-0.17653	-4.94076	-7.79329
36.6614	426.633	4.99875	6.01677	2.70882	0.672597	-7.80667
33.7694	442.148	4.96967	9.58807	1.96685	-2.67687	-7.8055
37.4781	441.745	4.97823	6.95636	2.30104	-1.3004	-7.80612
36.1086	441.439	4.9653	7.24881	1.56521	-1.85586	-7.80631
35.5525	443.794	5.00898	8.84417	1.42062	-0.619172	-7.80127
35.1405	442.455	4.98077	8.6738	1.60826	-1.41083	-7.80636
10.5949	449.074	4.97143	7.07751	2.98419	1.75011	-7.80551
11.2958	447.86	4.97121	5.75664	3.33095	1.91861	-7.80515
11.308	450.283	4.96502	8.44311	2.5487	1.79974	-7.80686
12.6991	447.867	4.96807	5.72923	3.30141	3.04133	-7.80745
13.4146	449.075	4.95979	7.8714	2.99052	3.04491	-7.80552
12.7134	450.289	4.95653	8.5453	2.06749	2.24574	-7.80291
0.76812	446.64	5	3.70996	-25.4496	-0.316333	-7.58621
6.3724	441.795	4.99738	6.79255	3.46694	-0.7568	-7.8017
8.4845	440.578	4.99264	7.34973	3.54935	-1.4701	-7.80775
6.37365	439.373	4.99789	8.13989	2.88823	-1.0783	-7.79886
7.0799	440.584	4.99604	7.34513	2.82181	-1.02567	-7.80552
11.2881	443.003	4.98722	3.88565	4.66317	-1.17962	-7.80096
10.5906	441.787	4.98906	5.91258	5.05588	-1.9059	-7.80959
9.1869	441.792	4.99012	5.93035	3.73891	-1.26615	-7.80321
0.069235	440.588	5	11.8232	-34.2575	0.00393747	-4.98327
0.76812	441.798	5	3.70996	-25.4496	-0.316333	-7.58621
17.7426	432.086	4.8649	26.8523	7.00534	7.18662	-7.78061
13.4186	465.99	4.94974	6.74704	1.22335	-4.92658	-7.80479
12.7015	467.197	4.9516	5.58659	3.11713	-3.48175	-7.80882
15.5067	467.193	5.01126	0.996856	2.30482	-7.27334	-7.79631
14.822	465.975	4.96892	6.90969	0.508205	-6.91606	-7.80254
14.7955	468.403	5.00529	2.23936	4.8806	-4.12219	-7.81277
13.3953	468.413	4.96917	2.39101	3.58126	-3.03849	-7.79963
10.6087	463.576	4.96159	9.96515	0.360189	-1.80107	-7.8011
11.3275	462.371	4.96384	12.3082	0.657168	-1.01804	-7.80786
10.6149	461.163	4.97262	11.1079	-0.0870288	-0.138134	-7.80052
9.2076	461.163	4.97985	11.0344	1.09913	-0.475503	-7.80631
8.493	462.371	4.98086	9.97837	0.94459	-0.848216	-7.80253
9.2024	463.58	4.97194	9.84349	1.29661	-1.23254	-7.8071
13.4482	458.752	4.97373	10.704	0.732727	2.36219	-7.80368
12.7377	459.96	4.9723	11.9125	-0.640486	1.50451	-7.80028
11.3297	459.956	4.97445	11.8145	0.796695	0.773946	-7.80624
10.6151	458.749	4.97861	10.8622	0.993437	0.78685	-7.80298
4.96751	453.911	5	5.20283	-3.70141	3.6869	-7.81365
6.375	453.909	4.9959	8.99284	2.14965	0.712479	-7.79562
7.0865	455.12	4.99331	9.70542	2.02421	0.586026	-7.80463
43.1109	16.9137	4.97039	2.79194	1.37589	-0.139216	-7.80592
41.2009	18.9619	4.95142	2.34297	1.74752	-0.139785	-7.80775
40.7916	17.6236	4.92652	2.24768	1.65291	0.00268832	-7.80668
41.7467	16.6004	4.94033	2.68577	1.53134	0.0937093	-7.80763
44.4763	4.81159	4.99458	6.23195	2.35548	-0.911426	-7.80377
46.7985	4.099	5	0.290889	-0.135909	-0.0478992	-7.80921
45.8453	5.12114	5	4.11527	-0.286548	0.410777	-7.81013
40.9123	1.53341	5.00368	5.61433	0.0335366	-2.47977	-7.80614
38.1717	0.913756	5.0403	5.59147	-0.403383	-3.80103	-7.804
41.471	23.9955	5.02222	3.50791	1.48766	-0.345236	-7.80723
41.8811	25.334	5.03283	3.50527	1.481	-0.258031	-7.80647
42.429	22.974	5.00634	3.33553	1.48741	-0.416656	-7.80713
43.2465	25.6466	5.01717	3.46697	1.78187	-0.154857	-7.80719
43.7945	23.286	5.00413	3.36253	1.61097	-0.393443	-7.80752
44.204	24.6246	5.00587	3.13545	1.66003	-0.420228	-7.80588
46.5262	11.4897	5	4.9806	-0.0803939	1.23858	-7.80872
46.9346	12.8262	5	0.12397	-0.129961	0.0810589	-7.80755
47.4794	10.4676	5	0.144119	-0.145527	0.0555004	-7.80741
48.2965	13.1408	5	2.19684	-24.3243	6.4543	-7.58604
49.2498	12.1187	5	9.56131	-31.742	10.0573	-4.98359
48.8413	10.7821	5	2.18072	-24.3368	6.45708	-7.58603
48.7051	2.05479	5	2.15917	-24.3358	6.4562	-7.58601
49.1136	3.39138	5	9.56637	-31.7382	10.0593	-4.98354
49.6583	1.03265	5	3.13225	-10.2865	10.2169	-5.13488
49.7946	9.75995	5	3.13492	-10.2012	10.2343	-5.13479
49.386	8.42336	5	-10.4691	3.45786	-10.0062	-5.13477
20.9239	21.8336	5.88211	-18.7543	8.74928	-0.638236	-7.78577
19.5856	24.2404	5.4066	-12.8111	-1.44714	13.5598	-7.78128
20.9491	24.2774	5.65951	-9.54191	-6.69657	24.7189	-7.72607
21.5276	23.0843	6.02628	-40.176	-7.86564	16.0372	-7.71008
23.6748	16.0944	4.81516	83.249	18.425	20.1686	-7.58378
22.1678	15.8046	4.93073	86.5233	55.6838	21.6495	-7.4899
24.1919	17.4174	5.08991	36.017	10.862	22.9256	-7.70277
23.3109	18.4426	5.46446	9.3507	6.89797	9.83891	-7.78147
12.7132	19.3068	4.97397	7.83276	4.86381	-4.75792	-7.80622
13.4016	20.5275	4.97699	4.16536	5.57062	-4.61492	-7.79955
14.8042	20.522	5.00273	4.32614	7.52411	-5.6496	-7.81002
15.528	19.3143	5.01678	5.57803	5.64038	-7.6707	-7.79732
29.2166	21.1295	4.99288	-12.3908	2.71533	2.84352	-7.79059
29.5824	22.4782	5.08592	2.88431	6.94925	-5.34187	-7.81579
28.6147	23.4875	5.24595	0.769637	2.21586	-10.4956	-7.76967
27.2753	23.1382	5.44505	-1.08405	26.5436	-10.7878	-7.76694
27.1864	14.5748	4.21686	6.27137	-22.3113	-25.1722	-7.73004
26.1377	15.5072	4.42145	44.7122	-13.4008	-6.2382	-7.74099
26.5591	16.8112	4.67132	24.5393	-21.8667	8.95489	-7.7354
28.544	14.8482	4.32499	-3.12768	-12.4684	-14.2518	-7.78369
28.9338	16.1638	4.49617	4.44413	-17.1012	-5.03758	-7.77805
27.9401	17.1363	4.63952	21.6812	-10.1794	5.93832	-7.80655
25.2159	20.0254	5.66789	-3.13217	-5.68941	19.9069	-7.77081
26.0889	19.0561	5.21079	7.11711	-8.8041	21.0546	-7.73857
27.4323	19.4397	5.02723	4.87747	-0.828927	15.8478	-7.79374
27.8838	20.7649	5.12689	-17.9425	3.4266	12.3536	-7.76695
25.7281	21.3156	5.84388	-36.5239	-7.6822	21.0849	-7.70577
26.9761	21.7548	5.45728	-31.6777	15.1056	8.88728	-7.72069
12.6703	26.6188	4.9711	1.62554	5.89869	2.12989	-7.81052
16.8466	24.2047	5.10135	-4.15431	5.70729	2.46819	-7.80833
15.4777	21.75	5.03313	-1.36005	6.8989	-3.93164	-7.79323
0.069235	14.5017	5	11.9052	-33.9757	0.0316749	-4.98359
4.96751	13.2801	5	7.65543	-4.06873	-5.72382	-7.81318
0.069235	12.0807	5	11.9115	-33.9528	0.0125907	-4.98361
2.86465	12.0807	5	8.96259	-0.226532	-0.0565932	-7.80139
2.16577	10.8703	5	0.235885	-0.162097	0.00389446	-7.80742
0.76812	10.8703	5	3.64272	-25.7188	0.00302491	-7.58609
0.76812	13.2912	5	3.64025	-25.7304	0.0283313	-7.58608
2.16577	13.2912	5	0.232727	-0.1717	-0.0343816	-7.80743
8.49805	9.64421	5.02937	11.3498	3.09184	0.0793486	-7.80435
9.2147	10.8523	5.03016	12.565	2.82042	0.116878	-7.80404
7.09005	9.64873	5.01443	11.3119	2.66832	-0.389191	-7.80367
6.37835	10.8593	5.00654	11.8299	2.67519	-0.452323	-7.79199
19.0061	5.942	5.04128	1.61116	-2.91591	5.53906	-7.78731
17.652	8.37857	5.12416	6.41513	7.03124	-1.27392	-7.80775
19.0552	8.34454	5.09657	6.16462	2.09471	-7.0048	-7.7919
19.7586	7.12659	5.0364	20.5494	2.03636	-3.17004	-7.81656
16.9259	7.17727	5.13194	3.31449	4.79447	1.55008	-7.80363
17.6084	5.95378	5.10891	1.7675	5.45826	2.64083	-7.8088
28.1411	6.13272	4.71814	46.1695	10.3696	-11.8561	-7.70968
29.145	5.10681	4.81274	29.9922	12.488	-12.6608	-7.78008
28.7863	3.74646	4.87133	4.96961	12.6052	-11.5886	-7.75971
27.4292	3.39654	4.77163	3.44263	40.6739	-11.3404	-7.7667
25.8312	1.57711	4.57524	-39.7282	3.6038	25.6997	-7.71671
24.9755	2.5867	4.27907	-65.6027	-14.7662	30.3452	-7.22906
25.315	0.269405	4.71444	2.16781	8.72209	19.5726	-7.78755
23.0846	1.06719	4.43117	-20.7602	-14.145	-10.6896	-7.74979
23.6329	2.29496	4.18525	-50.968	-44.0839	-7.22943	-7.26897
25.9526	10.6124	4.05457	-20.1624	-11.6421	2.04294	-7.75922
25.1192	11.6931	3.91116	-45.628	-42.7791	-2.27128	-7.27354
23.9914	9.37817	4.5805	12.7438	-7.22916	-23.4653	-7.76606
25.3839	9.37674	4.36729	13.8793	1.84849	-11.5112	-7.77353
23.1876	10.539	4.56424	-24.2257	-14.8936	-35.5122	-7.69849
23.7706	11.7038	4.20572	-43.2527	-35.3623	-43.6137	-7.22898
24.1334	6.95249	4.71249	86.091	5.21078	-18.0582	-7.57168
25.6682	6.93499	4.64285	94.7491	39.2801	-23.1388	-7.46945
23.8545	4.57312	4.37177	9.65615	-34.9325	7.37121	-7.40352
23.2967	5.81	4.6272	48.5437	-20.8997	5.38541	-7.78723
26.7142	5.83715	4.67897	62.9316	35.7101	-29.9735	-7.63169
25.1563	3.99676	4.38428	-25.87	6.57462	-21.2187	-7.4027
26.444	4.43633	4.62368	-0.433569	31.3033	-25.9629	-7.78902
8.4753	31.4605	4.99032	5.01305	2.51344	1.28353	-7.80652
9.17685	30.248	4.98519	4.42459	2.99656	1.57016	-7.80634
9.1827	32.6711	4.99057	5.74709	2.23925	1.33318	-7.80701
10.5788	30.2554	4.98033	4.43622	2.97932	2.2589	-7.80638
10.5856	32.6776	4.98714	5.7503	1.88788	1.73519	-7.8049
11.2879	31.4657	4.98219	5.7069	2.53587	2.3126	-7.8076
6.3683	30.2442	4.99658	4.62068	2.87052	0.482273	-7.80406
7.0706	29.0318	4.99288	4.21349	3.02321	0.543038	-7.8058
6.3683	27.8186	4.99529	4.36329	3.65024	0.06146	-7.80592
4.96554	30.2447	5	2.79271	-1.1698	3.5142	-7.81003
4.96579	27.82	5	2.73922	-0.575992	1.47798	-7.80985
4.26899	29.0273	5	4.23329	0.633114	2.28811	-7.80743
7.0717	24.1774	4.98976	4.69242	3.89771	-0.611453	-7.80477
6.37025	22.9634	4.99412	5.58259	4.15424	-0.965	-7.80501
4.96671	20.54	5	4.40445	-1.81404	-7.3721	-7.80884
18.9874	1.04129	5.0018	-4.46905	6.5182	-13.9606	-7.80174
13.4042	1.11893	5.11349	3.94554	4.97959	-4.90981	-7.79961
12.7015	2.33608	5.11198	5.48948	6.1976	-3.23111	-7.81045
14.8045	3.53483	5.13806	3.65957	8.29306	-2.61194	-7.81222
13.402	3.55089	5.12613	3.64849	5.95761	-2.48918	-7.79902
2.16577	131.918	5	0.0587467	-0.308008	0.00352792	-7.80759
0.069235	123.444	5	11.8324	-34.1886	-0.0288774	-4.98339
8.46395	121.002	4.92922	2.09612	1.7532	-0.908309	-7.80732
7.06465	121.008	4.9664	2.11805	1.72983	-0.825238	-7.80716
6.36455	119.796	4.98261	2.22382	1.88935	-0.931592	-7.80606
7.06565	118.584	4.97181	2.40677	1.76258	-0.966282	-7.80695
9.16465	119.79	4.91474	2.06689	1.77165	-0.929568	-7.80701
8.46535	118.578	4.94063	2.38582	1.89509	-1.0838	-7.80744
8.47315	113.732	4.97349	4.31206	1.77002	-1.68534	-7.80721
7.07605	111.318	4.99422	5.88511	1.38476	-1.28899	-7.80642
8.47885	111.311	4.98788	5.91226	1.33974	-1.82158	-7.80606
9.181	112.522	4.97594	4.91607	1.53436	-1.80443	-7.80607
6.3686	112.528	4.99496	4.96717	1.66721	-1.33303	-7.8013
7.07165	113.739	4.98734	4.31603	1.60739	-1.2365	-7.80643
0.069235	113.76	5	11.905	-33.9754	-0.0319218	-4.98359
2.86465	108.919	5	6.90176	-0.165406	-0.0472284	-7.80321
0.069235	108.919	5	11.905	-33.9754	-0.0319218	-4.98359
2.16577	107.708	5	0.190532	-0.123935	0.0201788	-7.80742
0.76812	107.708	5	3.64258	-25.7266	-0.0315927	-7.58608
7.08245	106.482	5.0039	8.43028	1.33985	-0.75632	-7.8065
6.3728	105.273	5.00332	7.94945	1.62593	-0.715486	-7.79631
7.08205	104.063	5.00751	8.15233	1.73925	-0.431155	-7.80618
8.4869	104.06	5.01488	8.19473	1.55101	-0.0470431	-7.80452
8.4837	99.2161	5.0232	6.96263	3.38338	-0.605701	-7.80819
7.08065	96.7979	5.01117	7.35682	2.79865	-1.05846	-7.80506
8.48515	96.7912	5.02208	7.34636	3.52294	-1.37095	-7.80798
9.18965	98.0037	5.02902	6.34784	3.25783	-0.918742	-7.80329
23.4427	182.69	5.20808	50.4577	46.135	25.2567	-7.67653
24.2048	183.978	5.15553	84.1627	47.5289	24.6013	-7.52317
23.3407	185.138	4.98008	37.5774	15.1015	-8.57586	-7.68342
21.985	182.679	5.12838	42.3584	11.4126	11.7367	-7.71678
21.2257	183.868	5.11197	30.3903	-5.16518	-4.88512	-7.76536
21.9076	185.093	5.02918	33.2028	0.973098	-10.9446	-7.77349
23.2906	192.219	4.67423	48.9661	-23.5138	4.66927	-7.78427
21.9146	194.671	4.9665	33.3648	0.955316	-22.4562	-7.75293
19.7547	193.546	5.08041	20.947	0.619091	-3.0855	-7.81568
21.1676	193.492	4.97844	23.0196	-16.0313	-6.96861	-7.73867
21.8539	192.279	4.82053	40.5819	-5.53091	5.81146	-7.77356
17.7013	197.236	5.09742	10.28	9.71913	2.65239	-7.7875
17.019	198.467	5.05921	18.9138	10.3395	5.28876	-7.80016
16.9703	196.03	5.13353	10.4503	8.80763	2.66333	-7.8083
15.6027	198.464	5.05903	17.9426	5.26889	3.09456	-7.79754
15.5621	196.038	5.12708	10.2612	5.75612	2.87383	-7.79977
14.8707	197.26	5.08897	14.1947	5.16508	3.36196	-7.80243
23.292	199.438	4.29907	-25.8324	9.92751	4.4662	-7.40806
22.1667	202.204	4.89418	86.6343	54.8848	20.0689	-7.49876
22.9403	236.065	6.41994	-22.217	-9.53001	-6.65901	-7.72737
21.5753	236.036	6.18951	-19.2284	5.3858	-11.426	-7.75319
20.8814	237.253	6.10194	-18.5308	10.3324	-5.65863	-7.78591
17.5408	236.021	5.31909	-7.58147	2.23889	-6.41457	-7.78505
18.914	236.015	5.55135	-8.04277	5.30317	-7.39233	-7.808
16.8802	234.799	5.19948	0.0990041	2.62314	-8.03209	-7.80771
17.6136	233.601	5.21747	3.17914	-0.465126	-10.6868	-7.79326
19.0062	233.588	5.36855	4.15423	2.10883	-13.5474	-7.79742
19.6331	234.811	5.59362	-7.89524	1.55235	-11.7519	-7.77887
13.3739	209.375	4.9573	0.599908	6.5296	-1.91073	-7.79784
14.7738	209.377	4.98378	0.520147	8.28285	-2.39351	-7.81179
4.9654	231.172	5	4.1176	-1.79387	-2.00185	-7.81282
4.27078	232.387	5	4.47416	-1.45934	-1.91477	-7.80798
15.5247	225.163	5.02493	3.43095	2.6735	4.75227	-7.79267
14.8192	223.949	5.00903	6.54225	4.41617	2.15355	-7.81232
13.4153	223.939	5.00692	6.53964	2.70557	1.67213	-7.80183
12.7113	225.152	5.01197	7.81351	2.48514	1.92682	-7.80722
12.7165	229.979	5.01061	9.93157	-2.23544	-0.000797837	-7.79615
11.3111	227.56	5.00903	9.0012	0.71424	1.76241	-7.8074
11.3106	229.975	5.00252	9.88538	0.675658	0.278383	-7.80899
10.5999	228.766	5.00389	8.58358	0.0483233	1.00598	-7.80239
0.069235	205.756	5	11.9862	-33.6946	0.319411	-4.98389
4.27474	203.336	5	5.90651	-3.95861	-7.5784	-7.80467
7.0879	203.318	4.99274	10.8411	2.39016	-1.58748	-7.80487
8.4954	203.311	4.98563	10.926	2.13673	-1.70454	-7.80278
9.2136	202.105	4.9894	12.6891	1.69469	-1.62802	-7.8056
8.5013	200.896	4.99886	12.771	1.74601	-1.4129	-7.80025
2.16577	204.546	5	0.120398	-0.369145	-0.02715	-7.80759
0.76812	204.546	5	3.57484	-26.0042	-0.00381234	-7.58594
0.069235	203.336	5	11.8232	-34.2575	-0.00341866	-4.98327
2.86465	203.336	5	7.38283	-0.456201	-0.0686931	-7.80287
0.76812	202.125	5	3.70996	-25.4496	0.316842	-7.58621
2.16577	202.125	5	0.273196	0.107642	-0.313709	-7.80724
2.16577	211.809	5	0.168418	0.212425	-0.295512	-7.80724
0.069235	213.019	5	11.8232	-34.2575	-0.00393747	-4.98327
0.76812	214.23	5	3.57474	-26.0046	-0.00406761	-7.58594
0.069235	215.44	5	11.9862	-33.6946	0.319417	-4.98389
8.4866	205.733	4.97731	8.15616	3.31177	-2.30359	-7.80614
7.08135	205.74	4.98857	8.21867	3.152	-1.38604	-7.80526
0.76812	209.388	5	3.57484	-26.0042	-0.00381234	-7.58594
0.069235	208.177	5	11.8232	-34.2575	-0.00341566	-4.98327
2.16577	206.967	5	0.208057	0.17227	-0.320111	-7.80724
0.76812	206.967	5	3.70984	-25.4501	0.316589	-7.58621
6.37005	209.377	4.99253	5.45562	3.92796	-0.834779	-7.8049
4.96658	206.953	5	4.31821	-1.5483	-7.32547	-7.80885
6.3719	206.951	4.99283	7.07724	3.56254	-1.28016	-7.80166
7.0754	208.164	4.98693	5.99297	3.38294	-1.04545	-7.80542
15.5859	203.305	4.97261	17.8538	3.51112	-5.52742	-7.8027
17.6805	204.522	5.04163	13.4498	6.20545	-10.3543	-7.79102
17.0008	203.296	4.99145	18.9094	2.25455	-7.43634	-7.78389
16.9296	205.719	5.04138	5.92936	6.74848	-10.1229	-7.80291
12.7391	203.299	4.96604	12.6501	2.15956	-4.22502	-7.79792
10.608	204.515	4.96605	9.78971	3.04198	-3.49035	-7.80343
11.3301	203.309	4.9708	12.3788	2.72124	-3.34262	-7.80494
9.2019	194.85	5.05202	9.31058	2.9577	0.452058	-7.80402
8.49565	196.062	5.03252	10.6902	2.15233	0.20862	-7.80461
8.4887	193.641	5.04688	8.64199	3.82988	-0.0694471	-7.8068
7.0833	193.644	5.02277	8.54743	2.6929	-0.208721	-7.80429
6.37545	194.856	5.01104	9.51186	2.74176	-0.0937945	-7.79633
7.08835	196.065	5.01585	10.709	2.26677	-0.058287	-7.80421
4.2762	196.072	5	6.64239	-4.43407	-1.93635	-7.8087
2.16577	197.284	5	0.287974	0.0928638	-0.282207	-7.80724
2.86465	196.072	5	8.3629	0.0205029	-0.313339	-7.802
4.96559	219.079	5	3.24986	-2.16675	3.92561	-7.81086
6.3685	216.657	4.99621	4.73421	2.83893	0.485585	-7.80382
0.76812	216.651	5	3.70996	-25.4496	0.316333	-7.58621
0.069235	217.861	5	11.8232	-34.2575	-0.00393747	-4.98327
2.86465	222.703	5	6.24655	-0.416623	0.0277601	-7.80388
2.86465	242.071	5	4.50508	-0.390535	0.0172114	-7.80507
2.16577	243.281	5	0.0663664	-0.315614	0.012333	-7.80759
2.86465	244.491	5	5.02409	0.127486	-0.273157	-7.80476
4.26976	242.071	5	4.20618	-0.553473	1.82506	-7.80764
48.4327	1226.86	5	34.1248	-6.27235	9.87462	-8.08444
49.2499	1229.54	5	-10.4211	3.37575	-10.0043	-5.13497
47.888	1229.22	5	-3.24786	-7.56381	-7.48822	-7.69671
47.4794	1227.88	5	2.23361	0.0295303	0.551263	-7.80636
49.7946	1227.18	5	18.7165	9.10491	2.36155	-2.87958
45.0235	1219.87	5	3.48572	-2.10249	-2.21854	-7.80841
45.9762	1218.84	5	4.18949	-2.29423	-1.94678	-7.80663
47.3432	1219.16	5	3.15863	0.112827	0.829014	-7.80586
47.7518	1220.49	5	-3.32949	-7.6037	-7.37027	-7.6969
49.6584	1218.45	5	18.7164	9.10491	2.36147	-2.87958
48.2965	1218.14	5	34.1331	-6.27446	9.90785	-8.08452
41.6097	1225.31	5.07261	2.82388	1.989	-2.38975	-7.80466
44.3342	1213.5	5.00978	6.32155	3.37755	-1.34263	-7.80465
44.8781	1211.14	5.00264	5.52438	0.388276	-1.46919	-7.80837
45.2918	1212.47	5	7.89343	1.61728	-1.05336	-7.80282
43.5082	1210.84	5.01293	6.08419	1.2621	-2.39336	-7.80418
42.5482	1211.86	5.02656	6.79627	1.9575	-1.79794	-7.80702
42.9638	1213.2	5.02688	6.35138	1.57346	-1.34071	-7.80405
49.5222	1209.72	5	-10.645	3.56198	-10.0436	-5.13411
49.9308	1211.06	5	3.1387	-10.1048	10.2588	-5.13466
39.6919	1227.38	5.09689	3.20186	1.52334	-2.96968	-7.80831
39.1362	1229.74	5.05333	4.81109	0.390221	-3.59419	-7.80702
38.733	1228.4	5.09848	3.07798	0.297359	-3.64262	-7.80404
20.792	1205.63	3.70464	-68.2604	-9.46795	19.4277	-7.24569
19.4645	1205.59	3.96764	-43.4911	-11.9223	13.1155	-7.71909
21.0292	1212.7	4.21928	-1.70829	5.34101	-20.3538	-7.77953
21.8239	1211.52	4.27999	9.49602	6.57602	-18.6217	-7.77791
17.5137	1206.77	4.51457	-9.51228	-3.98285	11.908	-7.78846
18.8839	1206.8	4.28766	-6.02218	-9.71863	23.3991	-7.74323
18.8422	1204.35	4.06885	-16.9197	5.93301	-6.69226	-7.80124
17.4867	1204.34	4.35635	-15.9108	0.773151	-5.80421	-7.76492
16.843	1203.11	4.4843	-3.64196	2.47113	-9.33145	-7.80736
17.5792	1201.92	4.43816	2.21472	-1.21162	-12.2388	-7.79456
19.5596	1203.15	4.00599	-17.2281	-1.21157	-14.2931	-7.77069
18.9663	1201.92	4.24826	4.70606	-1.40601	-16.0497	-7.7781
8.4759	1200.73	4.96823	5.41637	0.185324	-2.71232	-7.80567
9.1774	1201.94	4.95852	4.33493	1.14127	-3.13488	-7.80548
7.06405	1208.01	5.0022	1.92883	1.78505	-1.62508	-7.80715
8.4637	1208	5.00086	1.97112	2.05412	-1.84416	-7.80724
9.16465	1206.78	4.98863	1.80691	1.69989	-2.06711	-7.80607
11.263	1207.99	4.97698	1.45182	1.48587	-1.43543	-7.80677
10.5641	1206.77	4.97167	1.68474	1.55178	-1.73415	-7.80833
13.3629	1204.34	4.83355	-0.711935	1.77652	-3.62441	-7.79785
12.6633	1205.55	4.89178	1.02538	2.33018	-2.38165	-7.8108
11.265	1205.56	4.93966	1.03879	1.263	-2.12784	-7.80364
10.5688	1204.35	4.94328	2.471	1.85307	-2.87365	-7.80915
2.16577	1221.34	5	0.234374	0.14901	-0.27579	-7.80724
4.96431	1201.96	5	2.3862	-1.77495	-8.87502	-7.80658
4.26986	1200.76	5	3.37322	-2.94851	-7.8033	-7.80426
2.86465	1200.76	5	4.65406	0.171151	-0.371238	-7.80486
4.26818	1203.19	5	2.94894	-1.37345	-8.34019	-7.80358
23.9625	1222.21	4.9813	-23.6582	35.2392	-33.832	-7.67272
22.8886	1216.37	3.6003	-65.5933	-3.66941	16.0696	-7.22294
25.3079	1222.09	5.29397	-21.2147	7.52866	-33.9304	-7.71441
17.6977	1226.08	5.01652	21.793	1.50493	-5.74526	-7.80053
19.8229	1227.27	5.01934	27.9715	3.46484	-7.69335	-7.79039
21.1168	1229.66	4.85575	3.62191	-0.549382	-21.0635	-7.76327
8.4638	1210.42	5.01095	1.9508	1.59436	-1.60803	-7.8068
9.16375	1209.21	5.00628	1.77215	1.70209	-1.52809	-7.80722
10.5631	1209.2	4.99944	1.72143	1.29642	-1.65094	-7.80614
4.26581	1210.45	5	2.568	1.48755	-3.30084	-7.80597
4.96407	1209.23	5	1.04986	-0.400257	-4.74318	-7.80774
7.06415	1210.43	5.00698	2.00155	1.74807	-1.48196	-7.80739
6.36385	1209.22	5.00325	1.929	1.9383	-1.53306	-7.80685
13.3582	1206.77	4.88946	-0.434783	0.548082	-0.565609	-7.80354
14.7536	1206.77	4.80842	-0.612797	0.666134	0.879393	-7.80971
12.6616	1207.98	4.94555	1.2635	0.467826	-0.526182	-7.80596
13.3669	1209.19	4.94996	3.03821	0.0641157	-0.484499	-7.81186
18.9303	1213.94	4.48945	-5.21542	3.70001	-11.6084	-7.80866
19.6549	1212.73	4.45816	-3.63122	-0.900473	-16.9516	-7.77902
18.9962	1211.52	4.627	12.349	-6.3479	-15.4642	-7.77273
16.8583	1215.19	4.73326	-1.50921	4.54111	-4.5704	-7.81435
17.5505	1213.97	4.68682	-5.11746	0.97461	-9.51852	-7.78823
15.4778	1217.64	4.8369	-0.230782	2.2995	0.26741	-7.79846
28.5981	1216.31	4.96908	-1.54911	9.07737	-19.8197	-7.74205
31.3117	1216.86	5.23011	11.2129	2.36039	-7.58977	-7.80738
30.9054	1215.53	5.13984	3.70409	3.96468	-8.50682	-7.78054
29.5359	1215.25	5.02733	4.71051	15.9857	-10.9712	-7.80938
26.9464	1214.66	4.52737	-33.0112	23.343	1.92007	-7.71458
27.2568	1216.03	4.6923	-2.55552	37.1299	-20.6193	-7.74258
23.5567	1215.15	3.49148	-47.286	-36.2179	-9.66634	-7.24
22.9857	1213.92	3.68469	-21.4129	-10.9362	-12.1599	-7.73865
24.8917	1215.39	3.76591	-55.9594	-14.5752	22.8205	-7.24999
25.6846	1214.33	4.08978	-38.0688	-3.04139	13.2833	-7.7302
23.8018	1212.81	3.9336	-3.36789	2.56276	-2.47639	-7.76225
25.17	1213.03	4.10101	-6.97707	1.08563	8.10108	-7.79347
20.9927	1217.59	4.18994	-7.08372	-4.08923	17.719	-7.74401
21.5561	1216.37	3.85989	-41.8732	-7.16069	8.39436	-7.71693
19.5762	1215.15	4.30287	-16.5883	2.85228	-8.4972	-7.75965
20.9235	1215.14	3.97739	-17.2902	10.4464	-10.7448	-7.79219
32.5003	1208.41	4.97821	14.1563	2.34965	-1.97397	-7.80661
32.9245	1209.75	5.01118	10.4687	1.78746	-0.878617	-7.79845
31.9643	1210.77	5.00931	10.414	3.94821	0.29447	-7.80957
30.5906	1210.47	4.94347	9.84184	2.73921	2.20683	-7.79388
30.1521	1209.14	4.89493	18.344	4.20081	-0.187456	-7.80754
31.1219	1208.12	4.92934	15.0534	2.22199	-2.4215	-7.79427
36.5127	1213.01	5.11641	8.00338	1.9751	-1.86846	-7.80498
35.5541	1214.04	5.15042	7.54574	1.88219	-2.10148	-7.80346
34.1812	1213.74	5.14337	7.75014	3.86	-2.38144	-7.80824
33.7637	1212.4	5.09738	6.56	3.17713	-1.13117	-7.80468
41.3344	1220.28	5.09857	3.28698	1.99323	-1.04011	-7.80686
40.9211	1218.94	5.10793	4.04503	1.9388	-1.03495	-7.80749
39.0162	1221	5.19731	2.30203	1.56115	-0.939603	-7.807
40.3813	1221.31	5.13802	2.57576	2.32324	-1.17171	-7.80639
37.2355	1219.36	5.25906	3.23815	0.810468	-0.2268	-7.80473
38.6016	1219.67	5.20495	3.48385	1.5036	-0.698405	-7.80837
39.5541	1218.64	5.15533	3.87362	1.60682	-0.69493	-7.80543
26.9537	1207.22	4.68203	29.4394	15.8816	-14.3866	-7.77455
28.3425	1207.51	4.78354	23.6394	6.504	-7.65933	-7.78331
28.7701	1208.85	4.80766	19.639	2.27701	-0.441493	-7.78654
27.8066	1209.88	4.73076	25.3182	6.8474	3.90427	-7.80329
24.0742	1210.41	4.33885	32.9453	29.0776	2.67855	-7.6853
25.9547	1208.26	4.58833	45.8062	13.7429	-12.8108	-7.70908
25.4852	1210.64	4.4463	28.786	10.2658	7.53197	-7.7903
26.4161	1209.59	4.59988	27.7336	4.30549	3.77783	-7.78227
25.2477	1205.51	4.47185	3.53703	42.3614	-12.5038	-7.75709
24.9465	1204.12	4.42781	-34.1416	29.3788	11.3592	-7.71276
22.8234	1204.72	3.80426	-61.1772	-15.7667	32.3264	-7.23188
23.6635	1203.71	4.12259	-38.2092	0.228297	25.0132	-7.71589
26.4013	1200.76	4.56858	15.9821	-11.3081	9.22288	-7.7474
25.4124	1201.75	4.54936	19.961	10.6223	21.4516	-7.7757
28.1674	1202.44	4.80267	2.94922	3.6481	2.17952	-7.79341
27.7651	1201.1	4.71714	16.3773	2.07316	2.34756	-7.8192
27.205	1203.46	4.74573	-5.06613	12.888	2.86492	-7.79782
25.8636	1203.09	4.60987	-11.1259	13.4459	17.3281	-7.763
31.0797	1199.39	4.87486	0.362644	3.95965	-7.0607	-7.80777
30.1208	1200.41	4.86024	1.70684	1.14228	-8.62378	-7.80489
30.6993	1198.05	4.77104	-5.29809	3.59961	-6.28294	-7.78735
29.3512	1197.75	4.58229	-5.18412	5.98914	-7.907	-7.8061
28.7637	1200.11	4.73382	2.12107	-7.4923	-8.76228	-7.78429
28.405	1198.78	4.55575	-4.39516	-5.13886	-14.9168	-7.78543
28.1037	1193.72	4.26542	-2.93299	6.18113	12.939	-7.77688
29.4541	1194.02	4.47784	-2.95025	5.93845	8.12506	-7.79844
29.8908	1195.35	4.53916	-7.49217	7.49294	3.76077	-7.80575
28.9905	1196.41	4.40482	-17.3415	4.0102	-1.65533	-7.76635
19.0667	1194.66	4.6983	8.29764	16.1341	1.91473	-7.81679
19.7801	1195.88	4.57913	1.82299	15.6132	6.2342	-7.76723
24.3741	1197.76	3.85414	10.8174	-37.9021	-2.82031	-7.39564
25.3308	1193.28	4.03031	8.3572	1.09116	-10.4943	-7.77256
27.4894	1183.54	4.49411	19.0173	8.56435	21.0049	-7.77645
26.1205	1183.16	4.32835	22.8723	4.42243	30.8318	-7.66623
25.2273	1184.2	4.09716	-1.89644	1.16297	19.2803	-7.7815
28.0915	1181.23	4.2848	36.7357	-7.21761	-2.09282	-7.77214
28.4772	1182.56	4.51428	15.3194	-12.7519	9.34068	-7.74784
30.4778	1180.58	4.4866	-4.28399	-6.18247	-14.1844	-7.78569
29.1473	1180.3	4.21164	2.51576	-17.2139	-20.3267	-7.73869
36.1077	1186.83	4.96697	8.20243	1.08199	-4.50262	-7.80399
35.1366	1187.85	4.9357	10.6789	1.56728	-3.44413	-7.80496
35.5493	1189.19	4.93137	9.9092	0.655752	-1.85872	-7.79949
37.479	1187.13	4.982	7.72049	1.76069	-3.68204	-7.80572
40.7751	1185.38	5.00651	5.9485	2.31278	-2.88934	-7.80806
41.5936	1188.05	4.99914	6.59955	2.28268	-2.50982	-7.80567
39.8141	1186.41	5.00126	6.13859	2.67126	-2.95675	-7.80459
40.2233	1187.75	4.99656	6.72176	2.46199	-2.57515	-7.80486
32.6793	1192.26	4.80909	7.59341	0.971907	3.93541	-7.79403
34.5812	1190.2	4.89715	12.1451	2.03936	-0.311937	-7.80981
39.8124	1198.84	5.02025	5.98746	3.64879	-3.06382	-7.80755
44.4748	1197.39	5.00223	6.66353	4.61254	-2.00975	-7.80564
41.7323	1196.77	5.00899	6.33238	3.15418	-2.24125	-7.80497
45.1576	1191.33	5	6.60257	-4.61526	-4.64939	-7.80614
34.0485	1192.57	4.87828	8.14356	3.24273	1.91573	-7.81148
35.0061	1191.54	4.9088	8.22218	1.5901	0.876155	-7.79799
42.831	1229.32	5.01245	3.60073	-0.0698575	-2.61445	-7.80307
41.0582	1227.68	5.05671	3.20889	0.802614	-3.00693	-7.80488
41.4641	1229.01	5.03048	3.79093	0.545778	-2.78177	-7.80808
42.0161	1226.65	5.04846	3.3751	1.92967	-2.41728	-7.80771
32.8332	1201.03	4.98936	3.58154	4.03736	-6.5973	-7.80865
33.6313	1203.69	5.00547	7.59107	2.04953	-7.10704	-7.80044
32.2601	1203.4	4.98208	7.99899	2.93562	-7.75026	-7.80392
31.8705	1202.06	4.97322	3.60826	2.70785	-7.53601	-7.80173
35.1581	1200.3	5.01952	4.46747	5.10874	-4.84541	-7.80948
36.5273	1200.6	5.02849	4.2974	3.62636	-4.45368	-7.80102
34.2009	1201.33	5.01542	3.5614	3.07327	-6.36997	-7.79999
34.5981	1202.67	5.02002	6.73073	3.21757	-6.60814	-7.80693
23.8938	65.695	4.09015	3.73479	-4.00988	16.9995	-7.76283
25.248	66.0438	4.22796	-0.85993	-6.18241	22.8258	-7.76663
25.7617	67.3319	4.02915	-35.5516	-6.67227	23.1887	-7.6986
24.9195	68.2832	3.55772	-52.7757	-14.5444	37.6707	-7.19447
18.9249	68.9787	4.53173	-7.42453	3.89535	2.39493	-7.80851
19.6036	70.2004	4.48123	-10.1824	-5.36847	12.2562	-7.78608
15.5942	62.9014	4.97196	20.8133	-0.470533	-5.17933	-7.80174
14.8509	64.0963	4.97007	12.7104	-1.09242	-7.01679	-7.7953
17.7667	61.6984	4.9723	34.9937	2.0307	-1.58687	-7.78633
17.0114	62.8908	4.93816	22.1319	-2.2297	-7.11817	-7.77878
17.6973	64.1091	4.85314	16.7104	2.4164	-10.4485	-7.79053
19.1083	64.1063	4.74502	19.0854	6.6289	-13.5436	-7.77695
19.2021	61.7027	4.94702	37.4914	5.03346	-1.689	-7.76771
19.9033	62.925	4.81254	39.8949	11.0309	-7.16139	-7.76721
21.113	65.3792	4.30808	0.451967	11.6827	-7.35236	-7.77385
19.7325	65.3414	4.53497	0.715263	5.48916	-10.381	-7.78457
18.9814	66.5323	4.54962	-2.9612	6.39405	-8.68108	-7.80627
19.5998	67.7684	4.36125	-14.8698	1.55989	-3.03468	-7.76543
33.2647	59.3952	5.13686	1.70191	5.01429	-0.614038	-7.80197
34.2168	58.3664	5.12434	2.92481	5.48477	0.152968	-7.80901
32.4445	56.7053	5.17965	1.22655	3.73657	2.71826	-7.80466
33.8075	57.0247	5.13881	2.01922	4.85975	1.39798	-7.80671
36.3609	48.9024	5.01183	8.52951	3.90723	2.81002	-7.80509
35.934	47.5644	5.00877	9.71214	3.4911	3.57436	-7.80599
34.0348	49.6076	5.03732	6.82512	5.87526	2.74484	-7.8095
35.4032	49.9272	5.02604	7.03252	4.29187	2.39826	-7.80321
34.5638	47.2428	5.01413	9.15059	3.28766	5.0331	-7.80115
33.6091	48.2685	5.0266	5.97207	4.99189	4.74601	-7.80329
34.8689	52.2924	5.06742	6.9334	4.25833	1.44615	-7.80437
35.8252	51.2661	5.03824	7.41379	4.50493	1.80987	-7.80689
35.2913	53.6306	5.07807	5.91238	4.16151	1.71246	-7.80516
37.1943	51.5829	5.02838	7.4275	3.91042	1.68113	-7.80535
36.659	53.9474	5.05786	6.03673	4.37914	1.41699	-7.80657
37.6155	52.9216	5.03662	6.6414	4.06107	1.48103	-7.80559
29.943	48.6474	5.1735	-3.2042	9.51349	8.69221	-7.80313
29.4878	47.3137	5.17064	4.58164	7.6395	11.4024	-7.79535
27.6974	49.3543	5.55251	-17.4358	11.1729	9.77678	-7.77863
29.0258	49.6884	5.31944	-13.8459	9.48511	4.44432	-7.77728
28.1267	46.9821	5.30202	4.30363	7.01863	14.5326	-7.77806
27.2322	48.025	5.54282	-4.01115	7.81537	12.8636	-7.78271
49.7946	47.0279	5	3.1311	-10.2038	10.241	-5.13478
48.8413	48.05	5	2.18616	-24.3402	6.4672	-7.586
15.5244	33.9019	4.98224	10.3013	1.59611	1.8193	-7.81084
14.8088	32.6948	4.98278	7.97445	0.907999	2.95898	-7.80056
17.6436	35.1205	4.97267	12.7976	1.19128	-1.3362	-7.81409
16.9309	33.9131	4.97251	10.5709	-1.49588	1.79936	-7.79547
17.6441	32.7073	4.96617	14.7697	4.38133	8.11521	-7.79461
19.0585	32.7263	4.93092	17.6271	10.4156	13.448	-7.78677
19.802	33.944	4.89182	35.6356	9.60936	15.2359	-7.73157
19.0522	35.1305	4.94479	13.6445	-6.50635	-4.20616	-7.79286
22.0018	35.2508	4.80883	73.1583	36.7781	33.8779	-7.56872
23.4665	35.6372	4.73656	64.1037	15.4663	37.8917	-7.63208
21.1339	36.3828	4.94028	7.34856	-4.77343	-9.03711	-7.73064
21.7033	37.6332	5.02907	-46.3104	-33.3953	1.02451	-7.33649
23.0403	37.9746	5.01912	-68.0983	-7.74251	41.4277	-7.26271
23.952	36.9874	4.88828	-24.8225	5.88661	43.8271	-7.64942
48.4327	59.136	5	2.18555	-24.342	6.4689	-7.58598
49.386	58.1139	5	9.55316	-31.7517	10.0762	-4.98354
46.1176	59.8436	5	4.72162	-0.214685	0.448583	-7.80872
47.0709	58.8214	5	0.399707	-0.124227	-0.104662	-7.80957
46.6624	57.4848	5	4.91535	-0.086804	1.24165	-7.80882
45.2931	57.1686	5	7.19654	2.96095	-0.44812	-7.80393
44.3341	58.1944	5.00303	6.57899	4.21869	-0.593367	-7.80277
44.7472	59.5352	5.00202	7.11473	4.38973	-0.872097	-7.80553
43.6459	51.8219	5.00211	8.85142	3.31081	0.925776	-7.80548
44.6099	50.8015	5.00051	9.03817	3.64602	1.01676	-7.80099
0.76812	572.53	5	3.70996	-25.4496	0.316842	-7.58621
0.069235	573.74	5	11.8232	-34.2575	-0.00341866	-4.98327
0.76812	570.108	5	3.57474	-26.0046	-0.00355711	-7.58594
0.069235	571.318	5	11.9862	-33.6946	0.319931	-4.98389
0.069235	568.898	5	11.8232	-34.2575	-0.00342165	-4.98327
0.069235	576.16	5	11.9862	-33.6946	0.319415	-4.98389
2.86465	576.16	5	1.87785	0.251563	-0.277739	-7.80657
2.16577	577.372	5	0.109293	0.271549	-0.295578	-7.80724
