9.5	3.5
18.7699	484.592	5.45157	-18.502	7.78345	-7.80223	-7.77882
17.6964	483.741	5.23978	-6.54081	2.0143	-11.3788	-7.77996
17.9287	482.356	5.24039	18.1858	2.96586	-12.2464	-7.80263
22.6081	483.019	6.24339	-2.68303	-10.5131	-20.0768	-7.38844
23.4072	480.166	5.57761	100.223	41.0762	2.95007	-7.4652
24.786	480.833	5.58311	80.6641	22.4393	18.3303	-7.58272
25.0453	482.227	5.80163	25.6863	13.5014	28.6031	-7.77461
24.0324	483.068	6.23894	-5.84021	-8.24333	21.9681	-7.38694
19.4652	480.42	5.33425	40.3595	-1.13777	-6.08535	-7.76342
19.2324	481.804	5.37972	20.4051	-5.12095	-15.066	-7.74784
20.3198	482.649	5.64101	21.291	13.4122	-22.7974	-7.75191
20.8082	479.896	5.43122	53.5974	5.51143	2.92134	-7.68717
21.9908	480.738	5.58838	82.2329	20.0673	-12.4639	-7.59316
21.6493	482.112	5.81179	29.4553	9.96725	-25.8266	-7.78046
22.7517	461.784	5.68551	11.8752	14.1718	7.54477	-7.78597
23.9961	461.142	5.81676	5.33524	7.5274	0.140014	-7.79084
45.8259	412.589	5	3.9654	-0.500505	1.47886	-7.80938
45.8966	413.983	5	3.16831	-0.943942	0.269761	-7.80656
48.2443	412.463	5	1.34107	-12.0287	4.30141	-7.69691
46.999	411.827	5	0.728175	-0.0916965	-0.192986	-7.80703
47.218	416.015	5	1.12075	0.690624	-0.681848	-7.80685
47.145	414.619	5	1.88925	0.507407	0.878634	-7.80828
49.5626	414.492	5	-4.9786	-1.65424	-11.9898	-5.13446
48.3173	413.858	5	-0.203805	-11.249	-5.58429	-7.69722
48.2362	458.651	5	1.39465	-12.1076	4.30512	-7.69691
49.4084	457.889	5	-2.20501	-4.77403	11.8166	-5.13516
47.1369	460.807	5	3.15306	0.806206	1.47135	-7.80848
48.3092	460.046	5	-0.149923	-11.2815	-5.59815	-7.69717
49.5545	460.68	5	-4.97687	-1.65522	-11.9898	-5.13447
49.6275	462.077	5	-2.51184	-4.18727	12.091	-5.13443
48.4552	462.837	5	0.836309	-11.5998	4.41325	-7.69639
47.2099	462.203	5	2.81845	1.24641	-1.7319	-7.80723
35.2928	420.797	4.79351	6.77462	0.284423	0.592396	-7.80547
34.1058	421.543	4.7522	8.20772	0.0983506	1.46136	-7.80826
34.1786	422.941	4.74538	7.70505	0.158653	2.63008	-7.79944
36.542	421.436	4.82503	6.46541	1.54506	0.683275	-7.80614
35.4278	423.583	4.77922	7.51778	1.90695	2.20467	-7.80926
36.6131	422.835	4.81729	6.5053	1.42798	1.28909	-7.80443
33.2137	427.888	4.7808	2.88231	5.17852	0.806651	-7.80469
34.3945	427.134	4.78125	4.38579	4.5866	1.5861	-7.80614
33.2751	429.29	4.8312	5.99648	5.50635	-0.831781	-7.81135
34.524	429.929	4.86565	6.49774	3.83614	-0.662672	-7.80016
35.7087	429.176	4.85839	7.32137	3.48126	0.102407	-7.80855
35.6414	427.776	4.82261	5.45582	3.15687	0.877951	-7.80594
28.1134	423.859	4.79631	15.0857	7.16749	18.2332	-7.78976
27.9315	421.082	4.69241	26.2634	-6.87789	8.52245	-7.76779
26.7157	421.793	4.80013	38.3189	0.534011	16.5857	-7.75363
26.8593	423.187	4.89978	16.0409	-2.12402	23.2128	-7.72887
31.7404	423.037	4.69095	9.17559	-1.72067	6.39143	-7.78886
30.5499	423.777	4.68828	11.9648	4.64592	9.86041	-7.80959
29.1995	421.723	4.68371	21.2058	-2.5405	9.03499	-7.80098
29.298	423.119	4.70568	11.8754	-3.4908	13.1723	-7.76768
31.5433	418.877	4.66504	8.07153	-3.40166	-1.86914	-7.80817
32.8551	420.905	4.72077	9.20871	-2.21467	1.35921	-7.80082
32.7925	419.509	4.71934	6.50603	-2.55703	-0.751964	-7.80416
31.6605	421.641	4.69187	12.6406	-1.40533	3.84705	-7.80926
30.3457	419.608	4.64132	11.512	-6.14698	-0.501302	-7.80014
30.4049	421.001	4.67104	14.6249	-6.15328	4.17521	-7.79024
38.9742	421.322	4.89304	5.76743	1.91365	0.635276	-7.8056
40.1555	420.567	4.92652	5.50733	2.21976	0.589246	-7.80761
41.405	421.204	4.9494	5.24245	2.52105	0.928088	-7.80502
41.4782	422.604	4.94571	5.79408	2.53794	0.673527	-7.80707
35.4826	448.097	5.07243	8.93554	2.63289	-0.731437	-7.80822
35.6248	450.879	5.00757	9.23049	2.14471	1.38605	-7.80699
36.8105	450.128	5.02104	8.29868	2.15211	0.857335	-7.80536
36.7374	448.728	5.05047	8.10183	2.38563	0.123931	-7.80337
34.3681	450.25	5.02477	10.4665	0.534869	0.804852	-7.8031
34.2965	448.851	5.05895	9.69705	0.807246	-0.957882	-7.80169
42.0516	456.865	4.98321	6.84799	2.8126	0.575319	-7.80596
41.9064	454.075	4.98725	7.28591	2.88269	0.90082	-7.80533
43.1594	454.709	4.99162	7.40628	2.82159	0.734156	-7.80484
43.2337	456.109	4.99043	6.82902	2.80428	0.655222	-7.8042
40.724	454.831	4.97836	7.18766	3.07447	0.952817	-7.80639
40.7993	456.231	4.97576	6.44971	2.91955	0.876283	-7.80623
49.8506	443.17	5	-2.49433	-4.18017	12.0796	-5.13441
49.7776	441.774	5	-4.9774	-1.65522	-11.99	-5.13446
42.9449	427.427	4.9726	6.96136	1.68747	0.690311	-7.80481
44.1285	426.673	4.9888	6.82838	3.14663	0.826019	-7.8043
41.6197	425.392	4.9451	6.46287	2.41715	0.903105	-7.80595
41.693	426.792	4.94901	6.78544	2.40658	0.888313	-7.80644
43.1608	431.612	4.98886	8.12112	2.34747	0.966175	-7.80342
44.2715	429.46	4.99189	7.57312	3.22507	0.751745	-7.80519
44.346	430.86	4.99438	7.69358	3.10264	0.882457	-7.8036
43.0181	428.826	4.97698	7.62511	1.89207	0.816418	-7.80433
41.8341	429.579	4.96445	7.60213	1.6624	0.669915	-7.80544
41.9073	430.978	4.97535	8.30224	1.74219	0.785135	-7.80618
45.3798	427.312	5	6.72573	-3.04324	0.0773219	-7.80809
45.4524	428.7	5	6.62323	-3.23162	-0.309688	-7.80672
49.8385	95.365	5	-4.92373	-1.99728	-11.966	-5.13474
49.9115	96.7608	5	-2.39397	-4.50602	11.9984	-5.13476
37.5381	116.335	5.07823	6.88218	2.96846	-2.00133	-7.80755
38.7933	116.961	5.06542	6.69108	2.54037	-1.75081	-7.80475
33.484	108.842	5.08391	8.45843	2.75716	1.79542	-7.81266
33.3293	106.064	5.03088	9.79854	-0.488622	-0.857121	-7.80275
34.5877	106.686	5.04226	8.80767	1.18996	-0.522445	-7.80785
34.6655	108.085	5.0684	7.287	1.06494	0.451338	-7.80066
49.4733	88.386	5	-2.41145	-4.51249	12.0097	-5.13478
48.3011	89.1471	5	1.0002	-11.9178	4.35027	-7.69675
49.4003	86.9902	5	-4.92522	-1.99575	-11.966	-5.13474
48.1551	86.3556	5	-0.103189	-10.7426	-5.58572	-7.69669
44.556	87.2449	4.99781	6.69071	3.08694	-1.32727	-7.80329
47.0558	88.5125	5	3.07319	0.852807	-1.81638	-7.80774
45.7349	86.4807	5	5.29902	-1.67481	-1.67939	-7.80888
46.9828	87.1167	5	1.63876	0.284011	0.717058	-7.80836
42.192	88.7786	4.99076	6.4384	2.11991	-1.35491	-7.80661
42.3394	91.5646	4.98876	6.58577	1.86775	-1.12907	-7.80645
41.0846	90.9383	4.98514	6.65695	1.87986	-1.18089	-7.80594
41.0123	89.539	4.98697	6.60357	1.91885	-1.32179	-7.80581
44.7745	91.4313	4.99747	6.5622	2.93597	-1.01705	-7.8039
45.9533	90.6678	5	5.45363	-2.00033	-1.35827	-7.8085
43.4466	89.4052	4.9943	6.16167	2.20371	-1.19709	-7.80448
43.5194	90.8047	4.99377	6.64011	2.15125	-1.00185	-7.80504
44.6262	88.6449	4.99777	5.99516	2.96578	-1.09138	-7.80669
45.8782	89.277	5	5.81632	-2.11928	-0.895528	-7.80634
19.8567	677.944	4.22437	-17.1981	10.5292	1.37373	-7.78637
20.9938	678.747	4.15206	-12.7226	2.662	1.03836	-7.77288
32.1107	684.19	4.63193	2.43468	-4.14635	-0.62532	-7.80901
33.1904	682.048	4.90873	4.88596	-3.25681	-1.15671	-7.80517
33.2796	683.432	4.74544	2.35702	-3.64672	-0.833948	-7.80295
30.8515	683.59	4.70771	3.22839	-7.77716	-0.568332	-7.79667
27.2394	684.502	4.53181	22.7327	-33.1315	1.79439	-7.73991
25.9172	684.031	4.73012	44.3635	-11.048	-20.3203	-7.71372
25.83	682.664	4.98457	21.3859	-11.378	-28.8556	-7.70736
27.0232	681.877	5.08198	21.86	-3.73084	-22.0746	-7.77638
28.312	682.413	4.9768	12.0563	-16.9978	-10.605	-7.76657
28.4136	683.765	4.69404	10.1992	-20.5346	0.869559	-7.78611
45.4083	682.735	5	3.64854	-1.41345	0.365156	-7.80639
44.2353	683.498	4.98494	2.39755	0.609523	-0.0283229	-7.80745
45.3381	681.342	5	3.04026	-1.67182	-0.171494	-7.80864
44.0878	680.71	4.99617	4.15218	1.1505	-0.735506	-7.80588
42.9111	681.471	4.98278	4.15332	0.126908	-0.79164	-7.80732
42.9856	682.868	4.96728	2.82193	0.060998	-0.331204	-7.80532
30.0611	692.555	4.90388	31.1815	-10.0616	6.47574	-7.77264
30.1988	693.919	5.15773	13.3817	-11.6687	15.7698	-7.74318
29.0693	694.621	5.57929	16.2666	11.3644	25.7957	-7.75096
27.7946	693.959	5.71561	24.0908	8.93018	30.1261	-7.77249
49.2949	687.432	5	-4.97714	-1.65573	-11.9899	-5.13446
49.3679	688.829	5	-2.49431	-4.18075	12.0796	-5.13441
37.4042	670.652	5.07827	11.6542	-0.417783	-4.59491	-7.80172
37.3311	669.253	5.06266	11.7958	-0.331694	-5.64894	-7.79999
38.6701	671.257	5.0748	10.8824	-0.741522	-3.98386	-7.80323
38.5154	668.489	5.05105	11.6103	0.156556	-5.45325	-7.80305
39.853	670.495	5.0571	10.2707	0.127673	-4.22489	-7.80279
39.7807	669.096	5.04779	10.9403	0.338658	-4.86373	-7.80214
38.4931	597.787	4.99331	6.58817	2.83785	-2.72412	-7.8077
40.9973	599.038	4.98117	6.16191	2.65451	-3.26789	-7.80463
38.5651	599.187	4.97903	5.55748	2.8341	-3.07312	-7.80386
39.8218	599.806	4.97335	5.79736	2.83775	-3.314	-7.80675
47.9888	616.12	5	0.997803	-12.4252	4.35916	-7.69722
46.7434	615.486	5	5.85369	1.70814	-3.40317	-7.80669
49.1611	615.36	5	-2.48174	-4.19234	12.0976	-5.1344
49.088	613.963	5	-5.00736	-1.65095	-11.9822	-5.13446
47.7697	611.932	5	0.954885	-11.6887	4.39863	-7.69641
46.5244	611.298	5	5.33686	0.910541	-3.17071	-7.80781
47.8428	613.329	5	-0.309777	-10.43	-5.55976	-7.69663
46.6705	614.09	5	-1.08013	0.205511	-0.506426	-7.80869
44.2456	614.23	4.98478	9.58081	4.80736	-5.80891	-7.79343
42.9838	613.617	4.96154	9.14657	2.90674	-5.38981	-7.80282
42.9139	612.216	4.96324	6.56758	2.85189	-4.92089	-7.80302
45.4267	613.456	5	5.78518	-0.532768	-5.34109	-7.81058
44.0889	611.444	4.98567	5.87776	3.59677	-5.07823	-7.80968
45.343	612.065	5	6.3033	-1.62178	-3.62511	-7.80128
39.2213	611.757	4.88872	7.05412	2.99493	-4.48429	-7.80391
37.8942	609.74	4.8916	7.15549	2.13931	-4.2251	-7.8051
39.1531	610.357	4.90025	7.17336	2.83056	-4.28953	-7.80526
36.7185	610.511	4.87463	7.36045	2.99932	-4.00716	-7.80575
36.7881	611.911	4.8533	6.63135	2.99568	-3.98239	-7.80309
38.0461	612.529	4.86065	6.96092	3.20872	-4.4127	-7.80612
40.6945	616.563	4.90334	7.98793	3.63394	-5.77241	-7.80224
43.1994	617.806	4.96511	10.3364	3.54973	-5.56156	-7.80254
41.8707	615.79	4.93322	7.96036	2.95684	-5.71463	-7.80487
43.1303	616.404	4.96255	7.23675	3.5703	-5.19012	-7.80102
48.4309	601.401	5	0.855215	-11.6352	4.40936	-7.69622
49.8222	604.828	5	-2.51158	-4.18714	12.0907	-5.13443
47.3316	603.558	5	-0.388233	0.264172	-0.0366741	-7.80794
47.4046	604.954	5	0.603841	0.107702	-0.114424	-7.81224
48.6499	605.589	5	0.7535	-11.5071	4.42335	-7.69649
49.7492	603.431	5	-4.98755	-1.64742	-11.9735	-5.13444
48.5039	602.797	5	-0.312362	-10.4461	-5.53719	-7.69644
30.5784	585.653	5.06648	0.254872	5.25063	-0.333123	-7.81386
31.7498	584.886	5.05591	1.19156	2.78049	-0.740906	-7.79911
29.3363	585.01	5.0916	-3.20727	3.59755	3.49969	-7.79175
31.6742	583.488	5.07143	5.3262	2.46472	-0.418535	-7.8157
30.4219	582.858	5.08463	5.19784	-1.39881	0.889367	-7.79347
29.2403	583.611	5.09033	8.14763	3.72784	4.48806	-7.81774
9.2804	43.9127	5.0214	2.3955	0.694366	1.18104	-7.80857
10.7207	41.97	5.03898	1.72024	1.08351	1.33889	-7.80956
9.43575	42.5227	5.03241	1.66793	0.713327	1.16797	-7.80536
11.845	42.8037	5.02773	1.33607	0.0432452	1.99899	-7.80339
11.6927	44.1935	5.01562	2.73611	0.0158691	1.81817	-7.80926
10.4067	44.7442	5.01355	2.42536	-0.0671824	1.43791	-7.80561
16.1053	59.4346	5.06732	9.37014	-1.16141	2.52154	-7.80948
15.799	62.186	5.14459	12.225	-1.6382	-2.46416	-7.8087
14.6571	61.3718	5.11044	9.31679	-2.00947	-0.82569	-7.80227
14.814	59.9827	5.06925	7.89354	-1.65967	1.03383	-7.80339
17.2499	60.2483	5.10327	11.5305	-4.02308	2.64651	-7.79869
17.0954	61.6367	5.13346	14.4899	-4.89372	-1.5844	-7.795
14.7758	49.4403	4.89084	7.08482	-0.802554	-2.64207	-7.8133
13.6408	48.6213	4.91956	5.00697	-2.47888	-0.824341	-7.80063
12.3539	49.1749	4.92768	4.75876	-0.457373	-0.524977	-7.81031
12.1911	50.5639	4.91244	3.18861	-0.486359	-0.917094	-7.80306
13.1579	52.7789	4.89291	1.88122	1.00506	-0.918853	-7.80574
15.5645	53.0433	4.88578	-0.698416	2.07897	-1.90713	-7.80589
14.2846	53.6077	4.89208	0.725114	1.74545	-0.540211	-7.80619
13.3209	51.389	4.8891	3.39738	0.847562	-1.58391	-7.81105
15.7324	51.6536	4.87064	1.7265	1.75679	-3.66724	-7.81222
14.6044	50.8284	4.87643	2.48905	-0.909856	-3.00733	-7.79858
0.072333	6.98416	5	-0.951357	-5.99907	-11.7899	-5.13477
1.03771	9.20417	5	4.53482	-26.4265	-16.5815	-4.98356
1.19589	7.81551	5	-1.01121	-20.8699	-10.6292	-7.58603
35.4848	77.2419	5.0767	8.28585	0.972368	-0.507923	-7.80778
35.3404	74.4626	5.14445	7.8088	1.57499	-2.59218	-7.80867
34.1577	75.221	5.14271	8.57456	-0.287697	-2.80764	-7.80204
34.2274	76.6185	5.1072	9.34366	-0.459847	-0.937122	-7.80338
36.596	75.0864	5.11057	6.97927	1.22786	-1.81612	-7.80418
36.6669	76.4849	5.07961	7.3105	1.16335	-1.08165	-7.80544
41.904	83.1919	4.99256	5.94706	2.34701	-1.28801	-7.80625
43.0828	82.4305	4.99608	6.14693	2.39393	-1.1348	-7.80522
43.2286	85.2188	4.99462	5.85584	2.34256	-1.27013	-7.80434
41.9747	84.5914	4.99137	6.0238	2.39567	-1.37829	-7.80692
44.4076	84.4577	4.99784	5.71407	3.06612	-1.1549	-7.80712
44.3374	83.0576	4.99812	6.27476	3.16213	-1.32186	-7.80375
34.3706	125.604	5.1296	5.79237	4.27217	0.365444	-7.81067
34.447	127.004	5.13514	4.26237	4.27488	-0.70676	-7.80595
32.0257	127.136	5.13097	1.04749	6.23948	-0.059239	-7.8057
33.2734	127.772	5.14061	2.80931	5.23978	-1.40666	-7.80565
35.4691	123.441	5.10627	8.12743	3.17436	0.161825	-7.80962
34.1341	121.414	5.09022	9.77085	1.60863	-0.335463	-7.80766
34.2126	122.813	5.10377	8.19576	1.49492	0.692267	-7.79967
41.6713	125.199	5.03539	7.61791	2.98213	-1.74822	-7.80642
42.8509	124.435	5.02017	7.73264	3.02673	-1.74139	-7.80362
42.7781	123.035	5.01989	7.15407	3.04119	-1.67357	-7.80441
26.8912	123.189	4.73147	17.2708	-2.42787	16.246	-7.74913
29.2258	121.666	4.96453	21.3612	-0.793994	3.88368	-7.80303
29.33	123.063	4.97969	12.3958	-1.88558	8.43766	-7.77695
28.1556	123.823	4.87879	15.5173	5.43468	12.6988	-7.80438
22.9626	117.002	4.29255	4.53953	8.11431	-1.12799	-7.79055
21.7219	117.65	4.42531	11.0991	14.5396	6.07217	-7.78759
21.6619	119.063	4.54499	29.1573	18.1715	9.87708	-7.77495
32.6116	115.21	5.07165	3.75838	3.25309	-4.15656	-7.79753
31.3626	114.578	5.03632	3.25435	5.71731	-4.44109	-7.81119
27.8026	116.886	4.75951	10.1875	3.26588	-11.1532	-7.80553
29.0478	117.512	4.89493	9.44932	-0.642803	-9.48027	-7.78525
27.7906	115.487	4.69197	-0.98769	2.03821	-10.4916	-7.7823
30.2325	116.751	4.96746	9.12957	3.45958	-7.49502	-7.81093
28.9539	114.713	4.83887	0.242692	6.16546	-7.1958	-7.80808
30.1918	115.35	4.96032	1.46178	2.93048	-6.99046	-7.78977
31.6862	121.542	5.05856	13.4129	0.445519	1.05638	-7.80818
30.4217	120.923	5.01199	15.8649	-2.64184	0.299328	-7.79521
30.3524	119.525	4.99522	14.1086	-2.18554	-4.11116	-7.7964
32.8747	120.791	5.07339	10.8242	-0.0754956	-0.677355	-7.80182
33.0302	123.57	5.10709	9.44007	3.49463	2.17145	-7.81246
33.1189	124.969	5.12507	4.33112	3.42665	2.06064	-7.79883
31.9449	125.734	5.12085	2.91146	6.10005	2.10163	-7.81175
30.698	125.094	5.07789	0.251684	3.84221	5.26539	-7.79272
30.5901	123.695	5.05431	11.9415	4.14366	6.12656	-7.81339
31.7727	122.94	5.07933	9.57067	0.068183	3.33181	-7.7922
5.0963	144.703	4.99331	3.44258	1.4816	-2.0307	-7.80355
3.81213	145.266	5	2.47096	0.659768	-1.6022	-7.81151
4.13302	142.487	5	2.96168	-1.74218	-1.26729	-7.80504
5.2609	143.313	4.991	2.3763	1.23083	-2.17816	-7.81051
2.84675	143.047	5	2.78719	0.217162	-1.16456	-7.80777
2.68857	144.435	5	-0.274547	-0.0235416	-0.161926	-7.80622
29.2932	7.48736	4.85292	20.5817	-4.1369	19.2939	-7.73849
29.1424	6.09306	4.92573	43.0649	-0.95212	11.0008	-7.75291
30.5673	8.1227	4.93869	18.9845	4.23394	15.2186	-7.79777
31.7484	7.36953	5.00939	15.6694	-3.68677	10.9175	-7.77144
28.3999	152.607	5.5109	17.6022	-0.253689	11.7985	-7.75873
27.2672	153.392	5.78237	18.4989	18.4115	19.1136	-7.75991
29.671	153.226	5.38023	15.8486	7.15805	9.01186	-7.80912
29.8156	154.624	5.39237	-7.88018	6.35956	7.04727	-7.78288
28.8557	159.648	5.44702	0.880156	3.56402	-14.5187	-7.7753
29.9814	157.454	5.37023	-6.69974	7.77179	-7.14456	-7.78231
30.0158	158.856	5.32324	2.50819	8.54386	-10.5724	-7.80302
25.3358	157.79	6.4681	-8.98909	-2.41775	-12.8655	-7.7651
25.2867	159.155	6.18171	-4.88789	-0.287693	-10.5322	-7.77599
26.475	159.798	5.85199	-0.422828	3.18219	-14.0082	-7.78185
27.6421	159.023	5.7219	-2.25476	4.40868	-13.1511	-7.79594
20.8165	168.084	5.69496	20.9378	15.7804	-28.2277	-7.73393
19.723	167.252	5.4312	21.5772	-3.25564	-21.3593	-7.7336
18.423	167.833	5.31268	19.7213	4.45315	-17.7401	-7.78955
20.5023	169.464	5.83234	-21.5204	14.7339	-20.6241	-7.72501
19.2666	170.055	5.57715	-17.7883	9.29885	-11.6564	-7.77534
18.1856	169.219	5.34681	-4.88916	3.91931	-16.0859	-7.77304
45.2035	146.001	5	10.2643	-4.74005	-2.58859	-7.80321
43.8796	143.97	5.00373	11.9425	5.25277	-3.9333	-7.79724
43.9466	145.373	5.00426	10.1445	4.90509	-3.13633	-7.80583
45.0632	143.199	5	9.9881	2.74362	-3.26568	-7.80479
46.6015	172.514	5	5.71431	1.83064	-3.33248	-7.80701
47.8468	173.148	5	0.954953	-11.6967	4.40639	-7.69661
42.6155	166.453	4.97781	9.57106	2.55124	-3.68828	-7.80285
42.7668	169.238	4.97131	8.22931	3.16618	-3.95176	-7.80269
43.9451	168.468	4.98909	7.95287	4.85506	-3.83464	-7.80693
43.8787	167.066	4.99053	9.96941	5.0765	-4.47774	-7.79832
41.5067	168.621	4.95361	8.34946	2.76527	-3.8296	-7.8041
41.4365	167.221	4.96021	9.20618	2.64947	-3.76607	-7.80544
41.2071	186.139	4.99455	7.91787	2.69703	-4.61541	-7.80353
39.9473	185.523	4.98637	7.85221	2.83255	-4.54219	-7.8048
41.2764	187.539	5.00006	8.61703	2.74042	-4.65439	-7.80531
38.7704	186.294	4.98536	7.7957	2.8557	-4.59635	-7.80402
38.8377	187.694	4.99486	8.98446	3.12306	-4.81573	-7.80509
40.0986	188.31	5.00173	8.87348	2.64113	-4.60946	-7.80216
44.7635	137.624	5.00173	9.36439	4.10817	-2.76538	-7.79947
43.432	135.602	5.00669	7.92823	3.57847	-2.38383	-7.80228
43.5035	137.003	5.00516	9.14131	3.47253	-2.4925	-7.80361
45.9444	136.855	5	7.96169	-3.07354	-2.64645	-7.80925
45.8668	135.468	5	8.10052	-3.51253	-2.19937	-7.80433
44.6126	134.838	5.00288	7.59058	4.74876	-2.30454	-7.80675
48.512	139.523	5	1.46047	-12.1712	4.27876	-7.69693
47.2668	138.887	5	5.10918	1.08628	-2.8076	-7.80704
48.5851	140.918	5	-0.207713	-11.2626	-5.60055	-7.69705
47.4127	141.679	5	2.7203	0.730562	1.39409	-7.80966
46.1632	141.042	5	6.79637	-4.58596	-0.797178	-7.80761
46.0859	139.654	5	8.48323	-3.78747	-1.87321	-7.80273
28.0087	144.211	5.31434	-0.0790069	12.4728	-8.9692	-7.80052
25.6395	144.324	5.69769	-6.51878	7.19423	-8.04036	-7.79387
26.8428	144.987	5.4636	-1.15644	10.2385	-11.8214	-7.78332
25.6466	142.924	5.77563	-12.853	6.34784	-7.0011	-7.77017
26.7687	142.144	5.48439	-11.6167	13.0091	-3.08545	-7.79112
27.9824	142.804	5.29489	-8.32759	11.7827	-4.99267	-7.78365
28.1027	148.449	5.33732	27.7934	9.65134	-14.7226	-7.78537
29.3788	149.053	5.28363	22.8746	1.71527	-9.57395	-7.77865
29.4506	150.455	5.31388	28.1098	0.828925	-2.19684	-7.77952
28.2506	151.212	5.42585	38.2178	2.60622	2.99286	-7.76861
26.9377	150.623	5.48352	52.105	9.65905	-6.1042	-7.69528
26.8866	149.21	5.42366	30.8069	10.3929	-14.6756	-7.76282
21.2569	153.351	5.66279	19.8236	14.9302	-28.7501	-7.73099
22.5723	152.773	5.84009	28.6146	10.2102	-32.8258	-7.75129
23.5289	153.642	6.33253	-4.53419	-11.6283	-25.995	-7.38011
23.0883	154.96	6.66853	-63.6416	0.0882556	0.831506	-7.24343
41.8751	152.49	5.01308	10.2806	3.57745	-2.81878	-7.80483
41.7231	149.705	5.01932	10.364	3.19094	-3.16624	-7.80344
40.5407	150.469	5.02784	10.5843	3.46535	-2.97394	-7.8053
40.6138	151.87	5.02324	10.2538	3.52865	-2.79306	-7.80257
42.9843	150.323	5.01013	9.7214	4.20137	-2.86321	-7.80177
43.0572	151.725	5.00825	10.2683	4.11063	-2.85325	-7.80106
40.8372	156.06	5.00527	9.1033	4.6078	-3.23712	-7.80374
40.766	154.657	5.01129	8.98394	4.49951	-2.87191	-7.80527
41.9462	153.891	5.00891	9.09362	3.47744	-2.93132	-7.80449
43.2062	154.511	5.00351	8.89319	3.67545	-2.93378	-7.80271
31.7151	146.116	5.14134	13.642	7.5617	-8.56239	-7.80642
29.2454	144.857	5.21731	3.20719	9.20379	-10.6748	-7.78455
30.4184	144.078	5.13611	5.81984	10.205	-7.46153	-7.80761
31.6695	144.711	5.11225	7.05668	6.99978	-7.65912	-7.79105
29.27	146.265	5.23973	14.3047	10.4952	-12.3093	-7.80155
30.5289	146.888	5.19474	13.5146	4.32499	-10.4556	-7.78193
33.0399	148.135	5.14073	15.7912	3.72011	-5.43571	-7.80383
32.978	146.733	5.12327	12.4947	3.67424	-6.84944	-7.79201
34.3074	148.747	5.11694	14.0838	1.90254	-3.89695	-7.79952
34.1627	145.964	5.09119	12.6139	5.03962	-5.78597	-7.80668
35.4258	146.581	5.08092	11.781	3.85496	-4.74997	-7.79798
35.4935	147.984	5.09077	12.9976	3.79773	-4.07186	-7.80335
45.5008	151.574	5	9.22694	-3.65361	-2.85628	-7.80861
46.8246	153.607	5	5.08613	1.77272	-3.02661	-7.80744
46.7515	152.211	5	3.04834	0.925152	1.46782	-7.8078
45.6434	154.374	5	8.81282	-3.46799	-2.09542	-7.80432
44.3875	153.746	5.0017	8.87993	4.86796	-2.6525	-7.80632
44.3192	152.343	5.00272	10.395	5.04426	-3.09979	-7.79925
33.1959	150.908	5.1508	15.5253	3.19563	-0.936506	-7.80545
33.2848	152.31	5.14253	10.7767	2.59994	1.19043	-7.79325
34.3824	150.147	5.11898	13.6313	1.61667	-2.37048	-7.80041
34.5478	152.929	5.09953	11.102	4.95663	-0.11874	-7.81107
35.7283	152.163	5.08053	10.3808	3.32774	-1.2349	-7.79881
35.6481	150.762	5.09041	12.4351	3.32788	-1.76514	-7.80633
48.2848	181.523	5	0.956146	-11.6801	4.39731	-7.69651
49.4571	180.762	5	-2.4934	-4.17967	12.0812	-5.13441
49.6031	183.554	5	-4.9994	-2.37991	-12.0476	-5.13498
48.3579	182.919	5	-0.232704	-10.5364	-5.56046	-7.69633
17.6737	131.344	4.80543	8.18408	2.30895	10.3165	-7.80775
17.776	129.952	4.70408	-2.84133	1.13288	8.79595	-7.78066
18.4255	136.28	5.08944	39.7607	-4.2947	-8.00278	-7.75885
19.7702	135.75	5.10978	53.2575	5.37812	1.50701	-7.68848
17.4167	134.089	4.9485	20.0315	-6.02707	6.29599	-7.78326
17.2635	135.476	4.99552	27.4063	-8.08283	-1.84274	-7.77353
45.5072	128.481	5	6.84332	-2.48898	-2.3635	-7.80914
46.7556	129.118	5	2.15199	0.170948	0.738666	-7.80812
46.8286	130.513	5	4.72208	1.01417	-2.93866	-7.80721
45.6481	131.28	5	7.78913	-2.68674	-1.99306	-7.80389
44.3271	129.248	5.00662	8.2216	4.20578	-2.40942	-7.80131
44.3946	130.649	5.00572	7.39325	4.25085	-2.24463	-7.80701
47.8549	126.96	5	0.905464	-12.3761	4.37204	-7.69704
49.0272	126.2	5	-2.49976	-4.26993	12.1109	-5.13449
47.9279	128.356	5	0.315831	-11.0344	-5.59503	-7.69685
49.1732	128.991	5	-4.6833	-2.29282	-11.8199	-5.13525
48.1469	132.543	5	-0.19583	-10.5171	-5.56166	-7.69664
48.0739	131.147	5	0.904499	-11.6793	4.40593	-7.69628
49.2462	130.386	5	-2.4999	-4.92208	12.0832	-5.13492
44.9896	118.709	5.00244	5.6378	0.447956	-0.301322	-7.80596
46.1682	117.949	5	4.97414	-3.13892	-0.390853	-7.80771
46.0925	116.559	5	6.29411	-2.48813	-1.01564	-7.80524
44.8405	115.927	5.00553	6.17834	3.13055	-1.14803	-7.80693
42.4059	116.061	5.02656	6.39811	2.28745	-1.72019	-7.80683
42.5552	118.849	5.02226	6.76857	2.28749	-1.25382	-7.80544
43.6606	116.687	5.01389	6.13515	2.06288	-1.55263	-7.80342
43.7335	118.086	5.01186	6.53485	2.01674	-1.43019	-7.80725
41.2994	118.224	5.03657	6.9132	2.52931	-1.42256	-7.80665
41.2273	116.824	5.03879	6.54089	2.52844	-1.58993	-7.80546
26.4269	137.92	5.24482	16.1448	-1.99263	17.3188	-7.74435
28.8696	137.808	5.08021	11.7229	0.104482	7.7185	-7.77589
27.6909	138.566	5.15854	15.2629	7.78595	12.6157	-7.80455
42.1056	133.578	5.01778	8.72224	2.96779	-2.59412	-7.80483
42.1743	134.978	5.01372	8.36152	2.9698	-2.62702	-7.80614
40.848	132.954	5.02997	8.42999	3.1384	-2.42906	-7.80571
40.9941	135.743	5.01797	8.26509	3.64934	-2.70661	-7.80452
39.6678	133.718	5.03625	8.18806	3.74135	-2.6257	-7.80432
39.7364	135.12	5.02778	8.18279	3.74288	-2.65914	-7.80509
39.454	129.528	5.06177	7.26921	3.215	-2.26571	-7.8055
40.6331	128.763	5.04772	7.3453	3.79988	-2.24535	-7.80537
40.5629	127.362	5.05094	6.7144	3.67887	-1.91086	-7.80585
33.4731	131.973	5.10744	7.30424	3.56095	-3.77474	-7.79986
32.218	131.346	5.11536	7.94588	4.76372	-4.66254	-7.81051
32.163	129.945	5.12632	3.8356	4.55595	-4.11009	-7.79765
34.6523	131.207	5.10947	7.24305	4.38379	-3.29151	-7.80856
33.3374	129.174	5.13573	5.19632	5.55642	-2.65962	-7.80886
34.5896	129.806	5.12395	5.82395	4.56328	-2.89209	-7.80153
19.7521	123.801	4.41087	20.2038	14.4193	-24.3264	-7.74734
21.0785	123.254	4.24847	28.4767	10.8714	-27.5052	-7.77502
18.2041	125.754	4.56758	-18.9091	8.05865	-8.92594	-7.77644
18.0397	127.148	4.55713	-11.0524	8.73799	0.200699	-7.80029
19.4384	125.18	4.28408	-22.3957	13.2238	-17.6317	-7.72818
20.4095	126.046	3.83304	-43.1869	-0.224759	-1.22895	-7.71889
28.4665	128.048	4.90186	-8.82026	6.40208	-3.58438	-7.78439
27.2519	127.407	4.6695	-11.1296	9.1601	-2.95926	-7.79764
26.1345	128.202	4.40826	-13.1846	1.7251	-7.68254	-7.76642
28.5045	129.449	4.94172	-0.180872	7.13505	-7.01808	-7.80606
27.3402	130.227	4.82984	-1.55766	1.66362	-10.6237	-7.77952
26.1312	129.59	4.5627	-4.9639	2.9611	-9.44168	-7.79744
22.0387	124.152	3.80547	-4.11696	-9.72742	-21.7571	-7.38558
21.5954	125.475	3.48808	-66.0533	2.04087	4.2347	-7.22889
23.7417	136.668	5.32936	79.591	24.399	17.8719	-7.59371
22.3681	136.004	5.23297	99.8129	43.597	1.23397	-7.47235
22.4168	134.553	5.01046	39.2829	39.04	-0.66712	-7.67639
32.4569	227.946	4.86305	5.53939	-2.10517	-0.601021	-7.8013
31.2908	228.72	4.89855	4.35899	-1.14133	-0.70837	-7.80611
31.3912	230.11	5.00247	2.58393	-1.83217	-1.68012	-7.80785
32.6553	230.704	5.0664	1.5829	-3.5566	-0.324782	-7.80305
33.8189	229.934	4.98452	2.40877	-4.29558	0.00857641	-7.80383
33.7221	228.545	4.89246	5.28534	-3.68002	-0.39683	-7.80738
45.6135	756.203	5	5.74021	-2.20752	0.948666	-7.80511
48.1835	758.872	5	1.16518	-12.1471	4.08796	-7.69748
46.9382	758.237	5	1.28327	0.78157	-0.769442	-7.80707
46.8651	756.841	5	3.88014	0.879868	1.84102	-7.80764
41.542	864.178	4.98723	6.06743	3.0185	0.967307	-7.80517
40.291	863.541	4.97804	6.15534	3.51331	0.72164	-7.80758
40.2162	862.141	4.968	5.66105	3.33855	1.059	-7.80549
41.3969	861.384	4.97296	6.69737	3.46817	1.75045	-7.80656
45.1544	863.298	5	6.68025	-2.44807	0.455497	-7.80605
43.9751	864.058	4.99661	6.35185	3.3748	0.978085	-7.80697
42.6483	862.022	4.98514	7.20192	3.21616	1.36773	-7.80421
42.7232	863.422	4.98976	6.18279	3.07223	1.16225	-7.80506
46.4798	865.331	5	2.96798	0.587241	-1.88404	-7.80731
47.7251	865.966	5	0.873359	-11.6298	4.41384	-7.69646
48.8974	865.205	5	2.29897	-24.6793	18.4092	-4.98357
46.4068	863.936	5	4.33896	0.392526	1.72671	-7.80707
47.36	858.987	5	0.00766703	0.251461	0.180846	-7.80792
49.7776	858.861	5	-2.49339	-4.18026	12.0812	-5.13441
48.6053	859.622	5	0.771715	-11.4988	4.41579	-7.69648
44.7038	878.023	5.00349	8.45063	4.2161	0.0530087	-7.80442
44.631	876.621	5.00395	8.15222	4.14264	-0.0951889	-7.80476
45.9571	878.66	5	8.67604	-3.38873	-0.659816	-7.80661
47.1369	877.894	5	4.02874	1.64816	-2.49237	-7.8068
47.2829	880.686	5	4.38027	0.268486	2.12807	-7.80832
47.3559	882.081	5	0.79456	-0.370967	-0.0033271	-7.80958
46.1837	882.843	5	5.7377	0.101042	1.93494	-7.80951
46.0302	880.047	5	8.23385	-3.69441	-0.38431	-7.80643
44.9259	882.212	5.0021	9.60264	4.93961	0.211775	-7.80236
44.8495	880.809	5.0026	8.5542	4.77909	0.187314	-7.80252
49.3517	781.204	5	-2.49344	-4.17949	12.0803	-5.13442
46.9341	781.331	5	1.92975	0.270952	-1.20456	-7.80813
48.1794	781.965	5	0.843413	-11.574	4.38812	-7.69646
46.8611	779.935	5	4.80331	0.452216	1.96552	-7.80808
48.0334	779.173	5	0.0728853	-11.1779	-5.83504	-7.69648
49.2786	779.808	5	-5.00773	-1.65182	-11.9925	-5.13417
36.2588	903.659	4.95984	8.00292	7.0501	0.243031	-7.80506
35.0809	904.426	4.96614	6.24012	7.15698	-0.879717	-7.80199
37.5866	905.696	4.97585	10.0001	6.22898	-1.12495	-7.80727
37.5144	904.292	4.96681	8.69638	6.12015	-0.161651	-7.80318
36.4042	906.459	4.98228	9.10234	5.63759	-2.12727	-7.79903
35.1474	905.83	4.98087	8.69374	7.16773	-2.25726	-7.81015
25.9667	898.601	5.25772	83.1685	23.9793	15.5972	-7.57859
24.5783	897.955	5.17201	104.688	43.799	-1.47702	-7.42204
23.1522	898.55	5.23923	86.1716	21.1668	-18.3051	-7.55094
22.8118	899.915	5.53278	30.3599	11.2088	-30.2839	-7.76298
23.7838	900.793	5.98626	-2.82325	-10.5649	-23.0913	-7.38663
28.6699	899.829	5.17013	19.4922	0.0678954	17.2093	-7.74516
29.9422	900.466	5.08402	17.9708	8.74567	13.5192	-7.79976
30.093	901.866	5.11512	-7.42435	8.16758	10.9331	-7.77854
19.1594	910.783	5.19893	24.716	-3.9328	4.78565	-7.78306
20.467	910.248	5.2921	29.4584	3.43646	9.70396	-7.78574
18.1251	908.587	5.19053	11.2018	-1.30984	7.67414	-7.7857
17.9939	909.981	5.15568	20.2397	-1.10826	5.37993	-7.8012
15.4905	920.234	5.04655	3.49508	4.00025	-0.499556	-7.81318
14.2066	920.795	5.00073	3.83349	2.72802	-0.641688	-7.80166
14.0492	922.187	4.98742	6.14599	2.8519	-0.402644	-7.80957
15.1826	923.013	5.00634	6.47328	1.02682	0.0668147	-7.80173
16.4696	922.458	5.07002	7.52748	1.38445	1.46191	-7.81213
16.6159	921.066	5.10528	2.21156	1.07341	1.33244	-7.7948
34.116	861.754	5.00329	2.28377	4.7675	-1.22132	-7.81289
31.7038	861.888	5.16044	0.491402	3.2044	-4.36869	-7.81322
32.9456	862.522	5.06189	0.722036	0.933597	-3.44057	-7.7933
34.0455	860.354	4.99064	-1.46604	4.6058	0.749144	-7.80019
31.6505	860.49	5.17782	-7.42234	2.89889	-1.81159	-7.78588
32.8038	859.713	5.05133	-3.11069	5.80961	1.74334	-7.8082
26.0314	871.161	4.60026	17.5029	17.6958	28.2104	-7.73357
25.7236	868.384	4.94786	55.9201	5.40479	6.0224	-7.67991
24.4848	869.125	4.74905	83.0824	24.3408	23.1638	-7.54816
24.744	870.512	4.46443	25.9232	15.4501	32.0613	-7.75929
23.2576	864.15	5.31727	7.22695	10.3322	3.3623	-7.79607
24.4505	864.902	5.304	15.1964	16.1899	-4.07276	-7.78771
25.6844	864.224	5.45888	11.8118	4.29706	-7.73465	-7.79267
25.7155	862.848	5.72851	1.57041	1.53218	-6.31261	-7.7964
24.5547	860.762	6.0707	-10.8234	-2.31526	2.28711	-7.77019
22.1653	861.952	5.38736	-6.11588	6.61436	5.12524	-7.79539
24.519	862.133	5.80624	-5.84961	0.341084	-0.134312	-7.77868
23.3045	862.758	5.51375	-1.91991	7.9819	3.03544	-7.79757
22.2442	860.557	5.48211	-13.3053	5.04729	3.41363	-7.77279
23.4375	859.957	5.86031	-15.8807	2.98619	3.45631	-7.78877
28.587	872.46	4.90519	-7.9306	4.18979	13.9867	-7.77267
30.8852	870.966	5.0715	13.7643	2.76714	9.2506	-7.80996
30.991	872.365	5.06062	2.06793	2.38866	8.21236	-7.78955
29.8198	873.12	4.99007	-2.4646	6.73663	6.9418	-7.80634
6.1036	478.218	5.00013	8.48446	3.09655	-0.217228	-7.80266
6.2651	476.824	5.00127	8.10838	3.11849	-0.14248	-7.80517
7.55755	476.273	5.0038	8.61029	2.37838	0.508714	-7.8064
7.2398	479.042	4.9992	8.4958	1.81683	0.121548	-7.80446
8.6927	477.1	5.00633	8.66473	1.89615	0.728071	-7.80399
8.53245	478.493	5.00219	8.73482	1.66256	0.298577	-7.80585
0.469831	474.054	5	-6.49826	-0.448762	11.7745	-5.13462
0.78622	471.277	5	-1.06742	-5.93211	-11.9339	-5.1347
1.75159	473.497	5	-0.991131	-10.1724	6.18205	-7.69628
1.90978	472.108	5	1.30745	-12.4559	-3.58365	-7.69643
0.944405	469.888	5	-6.20948	-0.395462	11.585	-5.13496
1.26079	467.11	5	4.70628	-26.1708	-16.4446	-4.98373
2.38435	467.942	5	1.76492	-12.8344	-3.39148	-7.69725
2.22616	469.33	5	-0.462407	-10.5875	6.32396	-7.69744
15.8926	456.838	5.05676	-1.08787	4.64783	1.11552	-7.79991
14.7721	455.999	5.00132	2.08446	4.91159	-0.7399	-7.80656
14.939	454.607	4.98959	3.45507	4.2663	-2.90859	-7.81179
16.2225	454.042	5.02006	1.4688	1.83455	-5.79745	-7.793
12.033	447.956	5.03639	7.73773	0.6975	1.65002	-7.80422
11.8759	449.347	5.01495	7.95053	0.411623	1.01568	-7.80465
10.8989	447.129	5.03949	6.92903	1.72333	1.80622	-7.80685
9.60775	447.676	5.02361	6.54345	0.982723	1.41047	-7.80574
11.3925	453.504	4.97254	6.40749	1.82506	-0.427811	-7.80269
11.5574	452.113	4.98126	7.96187	1.63086	-0.398354	-7.80974
10.1028	454.057	4.97509	6.54529	2.63129	-0.111481	-7.80798
8.9709	453.229	4.98214	6.37266	2.23369	0.212279	-7.80409
19.1649	460.744	5.36846	9.40206	3.69393	10.8941	-7.80698
21.6359	459.602	5.83083	-2.83438	3.8555	8.59916	-7.78851
20.5087	458.779	5.68993	-4.76496	4.21765	8.00124	-7.80255
19.2634	459.349	5.43383	-1.58578	2.38822	9.62257	-7.78311
20.3138	461.564	5.46122	10.5553	3.25279	12.1756	-7.77989
21.5776	460.993	5.65811	8.15624	6.57663	10.6097	-7.795
17.7554	462.688	5.21031	17.3437	0.681051	7.37214	-7.80347
17.8834	461.293	5.23453	8.80764	0.500399	9.32507	-7.78549
16.4565	463.224	5.14108	14.4514	-2.42772	4.52039	-7.79588
15.3112	462.404	5.09478	12.4668	0.490965	4.18933	-7.80743
15.4552	461.012	5.0945	8.01055	0.522626	5.30213	-7.79466
16.7451	460.465	5.15728	8.98507	3.7629	6.96515	-7.81207
16.417	473.787	5.22554	1.93677	3.31924	6.04959	-7.78973
17.6914	473.229	5.36758	0.791676	6.40206	6.15179	-7.81056
16.2882	475.182	5.19657	9.1294	3.78074	7.11445	-7.81186
17.4265	476.012	5.26183	9.21459	0.0208759	9.43413	-7.78486
21.3361	471.552	6.30931	-14.1479	3.94521	7.84504	-7.78598
20.1366	472.12	5.90746	-12.5826	3.2507	6.66866	-7.76768
22.4443	472.384	6.48929	-10.2537	-2.41396	7.91213	-7.76891
18.7086	475.466	5.40826	9.94722	4.05029	11.173	-7.80629
18.8072	474.072	5.50331	-1.25458	2.69356	9.98231	-7.7821
20.0525	473.511	5.77539	-4.36456	4.37935	8.52364	-7.80193
29.8262	596.205	5.28683	18.8674	0.630568	0.497908	-7.80412
31.0133	595.448	5.20937	14.7083	-0.494726	-2.07399	-7.79778
32.2789	596.06	5.14636	12.3359	1.54223	-0.976216	-7.80803
32.3659	597.459	5.12867	7.92627	1.10216	0.827013	-7.79465
30.1416	600.405	5.27054	-5.10844	7.63493	1.38244	-7.80638
31.2951	599.624	5.16448	-1.28994	4.08697	2.282	-7.79541
28.9097	599.77	5.44819	-9.20247	4.91446	6.40018	-7.78244
31.1908	598.225	5.18721	9.69131	4.42471	3.18057	-7.81517
28.7675	598.374	5.43551	12.7059	5.43436	8.49856	-7.81036
29.9316	597.603	5.29139	10.272	-0.287465	4.72763	-7.78312
42.0843	619.978	4.9498	9.54189	2.6979	-5.89723	-7.80391
42.0205	618.578	4.94188	9.72555	2.53444	-6.05454	-7.80153
40.7589	617.965	4.90863	9.56966	3.77159	-6.08315	-7.80397
39.5808	618.738	4.88185	9.26543	2.69702	-6.50127	-7.80035
39.6433	620.138	4.89574	10.1586	2.7301	-6.39161	-7.80432
40.9055	620.75	4.93089	9.80842	2.4584	-6.00743	-7.80073
44.6804	622.603	4.99409	11.0567	4.11011	-5.34256	-7.79456
43.4162	621.991	4.98092	10.825	2.5149	-5.10616	-7.80268
43.3457	620.591	4.97478	8.6622	2.83551	-5.29081	-7.7998
48.4269	624.495	5	0.937791	-11.7039	4.40091	-7.69636
47.1816	623.861	5	6.09844	2.01271	-3.68429	-7.8066
49.5991	623.734	5	-2.51184	-4.18727	12.091	-5.13443
0.481999	794.783	5	-6.48216	-0.492403	11.7511	-5.13433
0.323817	796.172	5	-1.06681	-5.96618	-11.901	-5.13437
15.5302	1134.22	5.15946	8.27352	1.82274	6.39471	-7.79819
14.3999	1133.38	5.14895	8.47896	3.35321	5.57714	-7.8066
13.1038	1133.92	5.12564	8.1356	2.18251	5.08159	-7.80174
12.9498	1135.31	5.11266	9.01071	2.23818	4.8489	-7.80475
16.3573	1137.84	5.13376	11.0848	-0.364292	4.26288	-7.80067
16.5138	1136.45	5.15248	10.6974	0.139265	6.0985	-7.79923
15.0584	1138.37	5.10833	10.1657	1.06314	3.75153	-7.80625
15.3791	1135.62	5.14761	9.9989	1.70711	5.70118	-7.80528
13.9248	1137.54	5.10345	9.37294	0.973505	4.16995	-7.80343
14.0815	1136.15	5.12283	9.33402	1.22024	5.02957	-7.80244
2.96439	1157.99	5	2.64181	0.61084	-0.903609	-7.80681
3.28077	1155.22	5	5.3456	2.09876	3.41789	-7.80775
1.99901	1155.78	5	1.86024	-12.9131	-3.37385	-7.6974
1.84083	1157.16	5	-0.485781	-10.5725	6.31541	-7.69735
4.41366	1156.06	5	7.79991	-3.31064	3.94761	-7.80364
4.25045	1157.44	5	8.21682	-2.24991	4.1415	-7.8083
6.5992	1104.98	4.98929	8.97032	4.23346	3.1643	-7.80164
7.7299	1105.81	4.98304	8.96533	3.56659	3.38449	-7.80408
7.57115	1107.21	4.98797	8.64035	3.52822	3.58634	-7.80466
5.3023	1105.52	4.99658	8.93916	4.55475	3.30075	-7.79853
21.1187	1127.86	4.82132	-6.36202	1.86157	-8.32195	-7.78064
21.346	1126.48	4.80202	17.6026	2.48895	-9.22073	-7.80913
23.0251	1132.37	4.59376	-4.64215	3.11358	11.8866	-7.79669
25.3929	1131.29	3.78298	-10.4563	-2.65686	10.5126	-7.76876
24.147	1133.21	4.48326	-2.20172	2.62936	12.1753	-7.78421
25.3648	1132.64	4.11787	-6.76153	-0.683011	8.49238	-7.77833
22.0375	1130.11	4.65194	-10.1695	8.01637	4.22201	-7.79651
22.1884	1128.72	4.61308	-17.445	7.0404	-5.30428	-7.78125
24.2951	1130.44	3.96202	-14.602	2.96124	10.6781	-7.78273
23.1028	1130.99	4.41017	-12.9805	2.04886	9.45852	-7.76344
8.73	1129.16	5.05307	7.26751	2.49879	4.43995	-7.80424
10.0245	1128.62	5.07284	7.17826	2.49385	4.29081	-7.8045
11.1531	1129.46	5.09397	7.15663	2.57645	4.21496	-7.80481
10.9989	1130.85	5.09458	7.70725	2.76287	4.49836	-7.80515
25.6591	1122.09	4.43976	31.0448	16.6084	15.4003	-7.76384
25.7177	1120.69	4.29409	13.0147	12.4596	11.3923	-7.78135
26.8717	1122.88	4.42713	40.6677	35.512	4.80924	-7.6688
28.1403	1122.2	4.40663	32.1952	15.8251	-6.38376	-7.77496
5.6142	995.812	5.00719	5.36831	1.82853	-2.55941	-7.80867
5.9239	993.035	5.00345	6.12901	2.01845	-3.1555	-7.80147
6.8986	995.246	5.01764	5.3802	1.30916	-2.60889	-7.80519
7.0595	993.855	5.01271	5.46335	1.15841	-2.49008	-7.80449
4.44711	973.884	5	2.8509	-0.759644	0.0139411	-7.80584
4.60371	972.497	5	3.78685	-0.604118	-1.57088	-7.80916
3.47952	971.666	5	0.0639771	0.0911305	0.0688406	-7.80763
3.16314	974.442	5	1.51036	0.0714745	-0.561204	-7.80947
2.19776	972.223	5	1.21516	-12.3619	-3.60555	-7.69645
2.03958	973.612	5	-1.03167	-10.1288	6.17247	-7.69631
14.7837	979.917	5.16207	6.00808	-0.880587	1.80629	-7.79644
16.0661	979.359	5.25661	6.75863	2.41771	3.48117	-7.81414
16.1973	977.965	5.27083	-0.561525	1.69429	2.3749	-7.7926
15.0739	977.138	5.15257	1.53419	3.88989	0.126457	-7.81313
18.5558	988.748	5.61847	-18.4188	8.10835	-10.1258	-7.77546
14.161	985.452	5.09468	10.6828	-1.92639	-6.66002	-7.79008
12.8717	986.019	5.05417	10.2755	0.866842	-5.69109	-7.80913
13.8209	988.233	5.07865	3.68066	3.20169	-6.15055	-7.80907
12.6918	987.408	5.04526	5.09151	0.579038	-5.96789	-7.79766
16.7827	984.312	5.23033	21.8083	-2.05974	-6.56322	-7.80044
17.0776	981.57	5.29864	15.3724	-0.826391	3.65358	-7.80714
15.7856	982.118	5.20083	12.6895	-2.93035	0.690722	-7.79842
15.6313	983.508	5.17336	16.0306	-3.71028	-3.31041	-7.79404
19.0146	985.952	5.48528	19.0835	-3.84852	-18.4662	-7.74302
10.2746	987.158	5.01203	5.92631	0.68	-4.30574	-7.80162
8.02165	985.514	5.00399	6.95636	1.31575	-3.36352	-7.80732
9.30805	984.949	5.01155	7.38722	0.75638	-3.16281	-7.8022
10.4456	985.768	5.01797	8.46284	1.0085	-3.97246	-7.80782
8.8219	989.116	5.00358	5.00207	2.0923	-3.47169	-7.80421
7.8546	986.905	5.00117	6.24097	1.19663	-3.59112	-7.80296
8.9897	987.725	5.00369	6.14771	1.84057	-3.80226	-7.80813
6.5691	987.471	4.99919	6.83003	1.7782	-2.73313	-7.8074
7.5384	989.684	5.0007	5.05248	2.0862	-3.31425	-7.80692
6.4053	988.862	4.99895	4.75978	1.70313	-3.01448	-7.80264
5.43295	986.65	4.99957	6.95865	2.04773	-2.78283	-7.79916
3.02117	986.383	5	0.518242	0.408816	0.190165	-7.80644
4.14561	987.215	5	5.32942	-0.826632	-1.88196	-7.81063
0.75782	974.168	5	-6.48213	-0.492281	11.751	-5.13433
0.599635	975.557	5	-1.06655	-5.96599	-11.9009	-5.13437
0.125063	979.724	5	-1.0669	-5.9326	-11.9334	-5.1347
0.283247	978.335	5	-6.21553	-0.392325	11.5691	-5.13492
6.86255	974.148	4.98371	4.64854	0.719923	-1.57892	-7.80514
7.9954	974.972	4.97712	4.7991	0.880653	-1.74773	-7.80776
7.83355	976.362	4.98403	4.94237	0.926114	-1.69233	-7.80678
6.54895	976.925	4.99134	5.03122	1.52456	-1.68031	-7.80593
5.4158	976.102	4.99543	4.89121	1.92057	-1.67036	-7.80289
5.57785	974.71	4.99378	4.56956	1.8518	-1.56556	-7.80892
10.9203	981.606	5.03488	7.25487	0.00392722	-1.66399	-7.80411
9.7824	980.789	5.01707	6.75149	0.637148	-1.68963	-7.80808
9.94125	979.397	5.01072	5.52873	0.738067	-1.5604	-7.80359
12.2082	981.048	5.06021	7.98056	0.0356169	-0.748917	-7.80877
10.2506	976.622	4.98601	4.23475	1.60811	-1.96063	-7.80768
10.4121	975.231	4.97212	3.98545	1.57088	-2.38907	-7.80678
12.8248	975.489	5.00547	1.91999	2.02209	-2.59725	-7.80551
11.6948	974.665	4.97397	3.26805	1.89732	-3.17862	-7.8049
0.299472	988.887	5	-6.20801	-0.395343	11.5844	-5.13496
1.73942	986.941	5	1.70099	-12.756	-3.41093	-7.6974
1.58123	988.329	5	-0.47901	-10.578	6.31801	-7.69738
40.8593	990.223	4.9355	5.57846	3.11868	-2.45259	-7.80613
42.0348	989.456	4.95607	5.48859	2.97275	-2.54448	-7.80634
41.9656	988.056	4.95652	6.6422	3.15806	-2.53115	-7.80587
40.71	987.432	4.93746	6.18359	2.41111	-2.16413	-7.80569
39.1577	981.222	4.95798	6.97488	2.82375	-2.44348	-7.80626
37.83	979.199	4.96544	6.92269	3.20349	-2.53507	-7.80764
39.0867	979.822	4.96485	6.94995	2.89639	-2.45375	-7.80429
34.5151	985.693	4.90255	6.73645	1.56401	-0.519277	-7.8007
35.7719	986.316	4.88791	6.79005	2.62375	-1.0057	-7.81041
36.9491	985.551	4.90487	6.30338	2.68825	-1.5538	-7.80356
28.2632	983.968	5.23559	25.3552	-3.00487	-0.993335	-7.78084
27.0642	984.718	5.35404	36.1812	-0.150591	4.98371	-7.77157
30.7283	983.821	5.06123	14.5608	-1.91243	-1.26895	-7.79718
29.6411	985.968	5.08199	10.9978	-1.94799	6.49513	-7.77987
29.5378	984.571	5.1192	19.4117	-0.927646	1.73135	-7.80427
31.9926	984.434	4.98799	12.2174	-0.0485129	-0.463894	-7.80881
30.9002	986.592	4.97594	10.6953	3.82959	4.31974	-7.81452
32.0788	985.83	4.94706	8.5059	-0.375828	1.631	-7.79405
34.9586	994.085	4.85237	6.3473	4.48861	-3.99749	-7.80761
34.8959	992.683	4.83266	4.3793	4.2978	-3.58997	-7.80222
33.7828	994.856	4.85134	6.35357	2.40051	-4.60763	-7.8001
37.1041	988.341	4.87333	5.4133	3.60314	-1.56334	-7.80815
39.6045	989.599	4.91175	5.50254	3.27656	-2.41741	-7.80585
38.4297	990.367	4.88856	5.21681	3.40663	-2.51157	-7.80617
37.1758	989.742	4.86553	4.75985	3.61516	-2.15875	-7.80587
38.2791	987.574	4.89723	5.41233	3.12013	-1.84822	-7.80433
39.5341	988.199	4.91434	5.83339	3.23481	-2.23628	-7.80685
24.1166	992.643	5.96952	-8.63858	0.474172	-7.69979	-7.77431
27.0295	1003.64	4.65261	-20.5168	8.07961	4.4377	-7.77609
28.0996	978.4	5.51938	-1.45807	3.09486	-11.585	-7.78013
28.1112	979.798	5.42125	9.17432	4.18855	-12.5103	-7.80332
30.6582	982.423	5.09655	12.8385	-1.53424	-5.4515	-7.79598
29.3955	981.816	5.19735	16.325	0.397746	-8.69295	-7.80469
29.3542	980.417	5.24817	8.55219	0.080956	-10.8174	-7.78342
30.5324	979.645	5.16613	8.3531	4.71544	-8.63954	-7.80957
18.4764	979.616	5.52649	7.1165	3.30934	6.62426	-7.81073
19.6257	980.426	5.62291	8.41979	2.67394	7.43855	-7.78702
20.8795	979.844	5.85191	5.67085	6.91207	6.10176	-7.79806
21.9975	982.03	5.69629	26.2155	18.5326	6.97809	-7.77965
22.0574	980.621	5.85534	8.90922	14.8178	3.1947	-7.78892
23.2421	1020.79	6.34132	-41.8503	-40.4729	-4.8852	-7.25572
25.5381	1022.02	5.75122	-12.9918	2.19869	-13.4853	-7.78704
24.3849	1022.8	5.90365	-9.3386	-4.43072	-13.9507	-7.76991
23.1974	1022.15	6.18079	-19.6656	-19.1488	-4.74644	-7.7362
25.5356	1020.63	5.82909	-45.4653	-0.970558	-4.76224	-7.72097
24.3743	1020	6.14935	-68.5292	-0.256373	-11.2793	-7.22761
28.7771	1018.24	5.08044	20.461	8.31625	10.9655	-7.80479
26.5729	1019.8	5.45197	-24.6855	16.7244	13.9438	-7.72554
28.9218	1019.64	5.07139	-5.71139	7.37605	8.58802	-7.78159
27.7899	1020.44	5.21684	-18.0579	12.9581	3.34911	-7.78043
26.0296	1015.63	5.12018	58.9119	9.13434	-3.01492	-7.67392
27.3521	1016.22	5.11254	44.6841	1.92599	5.79266	-7.75493
27.4973	1017.62	5.16538	22.018	-1.24053	14.5983	-7.74763
26.3466	1018.4	5.35671	23.378	18.482	21.84	-7.74959
24.8337	1005.18	3.89311	-14.0833	2.74289	-8.94544	-7.78298
23.685	1005.94	3.66546	-9.87324	-1.94111	-7.69946	-7.76688
24.8045	1007.97	4.29769	-4.33348	3.46534	-7.54546	-7.79348
23.6333	1007.31	3.94321	-7.85069	0.321379	-5.48478	-7.77579
25.0453	1040.93	4.57455	18.1736	4.02656	-17.1419	-7.78303
23.8178	1041.66	4.55854	21.6941	12.6616	-14.1864	-7.77118
23.7927	1043.08	4.64861	41.567	16.2009	-16.7405	-7.74328
25.0702	1043.7	4.72337	39.3372	6.33363	-14.4484	-7.74904
28.7578	1041.41	4.85428	16.5688	-0.769897	-14.8178	-7.77363
27.4963	1040.8	4.76787	18.1424	4.32956	-16.8418	-7.79308
28.8023	1042.81	4.87741	24.801	-0.384436	-11.6988	-7.79154
27.5905	1043.56	4.83963	28.8653	-3.82058	-11.4694	-7.76941
26.308	1042.96	4.77377	34.526	2.39541	-16.2655	-7.76784
26.2912	1041.56	4.7203	19.731	0.794044	-18.4892	-7.76314
0.092614	958.619	5	-0.781117	-5.74007	-11.6424	-5.1349
1.21617	959.451	5	-0.737153	-21.3338	-10.4796	-7.58592
1.05798	960.839	5	4.69924	-26.9274	-16.3606	-4.98375
21.9456	1016.39	5.17325	91.0384	22.1113	-23.1204	-7.48207
23.3925	1015.77	5.14404	109.638	44.5485	-5.99044	-7.35532
24.7883	1016.4	5.2318	85.8914	23.2062	12.3545	-7.57298
24.0047	1018.66	5.84935	0.479791	-8.44332	16.9099	-7.39369
25.0348	1017.8	5.46932	30.9583	14.7298	24.8848	-7.78169
20.264	1018.34	5.29865	24.3844	16.2001	-31.1823	-7.71896
19.9488	1019.72	5.44978	-22.1431	15.2983	-23.0433	-7.71783
22.5752	1018.64	5.83999	-0.300314	-12.9394	-26.2892	-7.38219
21.5941	1017.76	5.41952	33.069	11.3735	-35.1044	-7.74235
20.95	1020.57	5.86605	-45.0693	0.191914	-4.75625	-7.72199
22.1404	1019.97	6.14422	-67.418	-0.912288	-0.262242	-7.24779
20.8877	1014.16	4.89005	39.3267	9.94584	0.926487	-7.76892
20.7514	1015.57	4.99458	61.447	6.95557	-7.37622	-7.66239
9.5469	1015.2	4.94216	12.6292	0.888388	-3.3678	-7.80358
9.3844	1016.59	4.9389	12.1928	0.635975	-4.19421	-7.79945
8.4007	1014.39	4.96356	11.5547	1.04767	-2.80905	-7.80331
8.0936	1017.16	4.9574	11.8902	1.51724	-4.09501	-7.80516
7.11035	1014.95	4.97748	11.4729	1.43125	-2.75975	-7.80084
6.9492	1016.35	4.97546	10.8865	1.22328	-3.58179	-7.79998
13.2836	1014.88	4.88802	16.1245	-2.82779	-4.22781	-7.79498
18.6956	1009.82	4.56738	4.58033	-0.211913	6.08537	-7.78907
16.1569	1010.98	4.80844	12.0883	-0.568871	4.10992	-7.80962
16.2759	1009.59	4.77335	3.71327	-1.19513	4.65259	-7.79153
17.545	1009.02	4.63434	3.29988	1.11264	5.4208	-7.8104
12.3044	1023.21	4.98462	9.67503	4.49197	-3.42884	-7.80874
12.4691	1021.82	4.9531	7.81698	3.97085	-5.23044	-7.80221
13.4445	1024.03	5.01994	7.98627	3.48539	-2.00249	-7.79664
14.7288	1023.46	5.03666	7.45065	6.28832	-1.50727	-7.81473
14.8845	1022.07	4.99842	2.7172	5.8261	-4.16342	-7.79813
13.7524	1021.24	4.94861	6.60934	5.05709	-6.18148	-7.8036
3.5282	1003.32	5	1.22508	0.864974	0.735087	-7.80466
3.68638	1001.93	5	4.43586	0.615672	-2.16827	-7.8117
0.806495	1005.83	5	-6.21007	-0.3949	11.5853	-5.13496
1.12289	1003.05	5	4.7069	-26.1754	-16.4437	-4.98373
2.08826	1005.27	5	-0.494511	-10.5659	6.31588	-7.69732
2.24644	1003.88	5	1.73699	-12.7878	-3.40289	-7.69741
6.6363	1019.12	4.97675	11.8976	2.67129	-3.91633	-7.80258
6.47165	1020.51	4.9803	9.72736	2.70947	-4.03106	-7.79916
5.4914	1018.31	4.99024	11.7195	3.4482	-3.93086	-7.79524
5.18225	1021.08	4.99269	9.5466	3.85635	-3.77853	-7.80867
4.20032	1018.88	5	11.393	-4.25907	-0.681188	-7.80855
4.04699	1020.25	5	9.47629	-5.96473	-1.33631	-7.8013
0.173737	1011.38	5	-1.06621	-5.97098	-11.9002	-5.13438
1.29729	1012.21	5	-1.2244	-20.8184	-10.6738	-7.58617
2.57905	1011.65	5	-0.0245969	-0.145816	-0.0943619	-7.80748
2.73724	1010.26	5	3.40642	0.250259	-1.39361	-7.80991
3.0455	1210.76	5	2.99784	-0.159529	-0.918413	-7.80724
3.3619	1207.98	5	2.43255	1.0306	1.74291	-7.80832
1.92195	1209.92	5	-0.461474	-9.88346	6.24485	-7.69683
2.08013	1208.53	5	1.25042	-12.3623	-3.59542	-7.69684
5.46	1211.03	5.0002	5.30948	3.1332	0.836926	-7.80554
5.7784	1208.26	4.99642	5.93143	2.85506	1.05245	-7.80573
6.9093	1209.09	4.9932	6.01491	1.88896	1.18553	-7.80651
6.7498	1210.48	4.9984	5.69795	2.00552	1.11859	-7.80381
4.33212	1210.2	5	5.35468	-1.80942	1.12467	-7.80744
4.48988	1208.81	5	5.46558	-1.97989	1.14872	-7.80774
10.783	1207.43	4.94384	6.70485	1.50728	0.793488	-7.80702
12.2362	1205.49	4.89459	7.18421	1.38076	1.00162	-7.80555
12.0749	1206.89	4.91636	6.93717	1.21874	0.925472	-7.80571
11.1044	1204.66	4.90806	6.98007	1.18585	1.18364	-7.80563
9.81255	1205.21	4.9367	6.8713	1.33574	1.06176	-7.80653
9.65175	1206.6	4.95111	6.84079	1.32856	0.770048	-7.80519
36.1453	1156.18	5.00953	11.7156	3.13337	7.5056	-7.80721
37.3359	1155.44	4.99574	10.3085	1.36159	6.04448	-7.79663
38.674	1157.48	4.99039	8.34432	2.79646	5.5886	-7.79966
38.5883	1156.08	4.98874	10.2697	2.76016	5.36051	-7.80635
42.5893	1162.22	4.99985	9.28878	2.6477	3.68476	-7.80436
42.6652	1163.62	5.00239	8.0301	2.77524	3.54427	-7.80424
43.9155	1164.27	5.00102	7.70156	3.97054	3.65879	-7.80886
36.4692	1161.78	5.05176	6.05386	4.72945	2.50825	-7.81022
38.8224	1160.28	5.00284	7.21733	3.37869	4.34167	-7.80406
38.9021	1161.68	5.01207	7.52919	3.35901	3.53638	-7.80732
37.7165	1162.43	5.0323	6.46742	3.39165	2.72851	-7.80164
40.8122	1151.8	4.97888	8.56409	1.95907	3.13811	-7.80383
42.0009	1151.05	4.98048	8.7897	1.58934	3.32851	-7.806
48.1145	1151.47	5	0.817192	-11.5732	4.41762	-7.69646
48.1875	1152.86	5	-0.111139	-10.6594	-5.55196	-7.69631
41.1109	1157.39	4.98856	8.1252	2.61234	4.66865	-7.80215
43.47	1155.88	4.99361	9.50258	2.43101	3.53319	-7.80427
44.7973	1157.93	4.99775	7.15124	3.41754	3.46569	-7.81098
42.4442	1159.43	4.99389	8.48882	3.09663	4.62833	-7.80347
42.361	1158.03	4.99171	8.34955	3.14092	4.22044	-7.80636
43.547	1157.28	4.99427	7.50123	2.60221	3.53099	-7.80096
17.3641	1171.7	5.15458	3.1899	1.57808	-2.30973	-7.79497
16.0744	1172.25	5.09728	5.51922	3.91583	0.681504	-7.81185
14.9485	1171.41	5.06559	6.44372	2.59626	1.1179	-7.79921
15.1184	1170.02	5.07085	11.0626	2.63732	1.15971	-7.81034
16.908	1165.35	5.10059	13.8142	1.52034	7.88749	-7.80335
