30	4
50	1146.71	10
12.560000	573.268000	4.836350
13.368900	570.582000	4.864360
14.329600	571.597000	4.799850
14.884200	573.951000	4.745060
13.921000	572.938000	4.791150
15.688500	571.261000	4.747570
13.187100	588.040000	5.035170
20.968600	583.758000	5.077290
18.006300	571.927000	4.606540
16.242700	573.613000	4.690170
16.650900	572.273000	4.676110
27.374600	577.879000	5.579630
27.918600	575.539000	5.269150
28.324700	576.881000	5.429180
22.450500	581.951000	5.404390
21.189300	582.365000	5.156360
20.254400	581.334000	5.048630
28.934100	574.567000	5.182610
30.294800	574.951000	5.217450
36.726200	575.583000	5.112900
37.429100	573.266000	5.093750
36.082800	572.871000	5.110320
35.382100	575.186000	5.139470
35.054000	573.825000	5.132040
17.808700	585.752000	5.003470
19.589000	584.097000	4.998130
19.208300	585.449000	5.008270
20.229900	586.455000	5.040620
23.517200	582.844000	5.500610
25.923600	582.502000	5.611420
24.653200	582.056000	5.700030
19.282700	596.562000	5.888650
20.620900	592.619000	5.419990
19.737400	595.246000	5.765570
21.548700	593.670000	5.511040
21.111400	594.972000	5.760340
22.917700	593.450000	5.320890
20.324400	572.573000	4.508340
18.971500	572.932000	4.565410
24.304100	580.693000	5.712120
25.309100	579.770000	5.730720
22.914800	580.609000	5.508240
13.283700	579.327000	4.851980
16.018800	578.667000	4.805640
15.002000	586.391000	5.004740
13.621000	586.704000	5.004350
12.642900	585.694000	4.977890
13.061700	584.353000	4.950110
13.709400	590.392000	5.115470
14.153200	589.058000	5.080450
15.979400	587.403000	5.048550
17.366200	587.090000	5.050850
15.530500	588.738000	5.095460
16.485300	589.764000	5.164900
26.908800	571.451000	4.790940
27.226700	572.832000	4.941160
28.590900	573.208000	5.060200
31.324400	573.997000	5.167700
32.676200	574.386000	5.172630
33.706000	573.433000	5.142420
37.048800	576.945000	5.104030
35.066000	595.325000	4.895570
29.753100	593.677000	4.641320
18.445100	599.248000	5.899270
17.519700	598.212000	5.750800
17.931300	596.875000	5.749290
13.362100	595.442000	5.263470
16.811600	584.745000	4.964760
15.426700	585.051000	4.967320
14.440200	584.043000	4.940120
21.045400	591.298000	5.246530
23.500500	584.229000	5.258590
22.091600	584.748000	5.111190
21.687400	586.141000	5.031860
26.662100	586.438000	4.816990
26.082300	583.860000	5.342700
25.199900	586.109000	4.931470
24.891200	584.745000	5.187280
18.337400	591.826000	5.352710
19.250500	592.885000	5.468290
18.812000	594.208000	5.595440
23.323100	592.140000	5.035410
22.399500	591.072000	5.057890
25.092100	590.647000	4.520050
24.673600	591.921000	4.761570
25.702000	597.170000	5.751570
23.864200	594.501000	5.402210
26.538300	575.181000	5.176650
26.203000	573.821000	4.968400
24.872400	573.413000	4.793000
22.588700	573.209000	4.586510
21.265500	573.584000	4.572580
23.209000	575.453000	4.916530
23.626200	574.142000	4.771210
15.790800	550.162000	5.395680
17.153100	549.851000	5.473210
18.564300	574.274000	4.624900
17.208400	574.624000	4.669600
16.809900	575.968000	4.718410
13.684500	577.983000	4.821620
13.119000	575.625000	4.810190
12.715700	576.968000	4.831810
14.481400	575.294000	4.765220
15.449000	576.308000	4.752820
15.048500	577.653000	4.789380
18.335900	588.111000	5.106710
20.168400	590.198000	5.211410
18.791100	590.491000	5.253880
17.863100	589.444000	5.175450
19.730900	587.794000	5.089770
20.649600	588.855000	5.110000
18.100700	550.871000	5.600780
34.809800	567.435000	5.079190
20.784900	571.243000	4.446230
12.820700	568.230000	4.956150
13.781200	569.245000	4.897170
36.334100	557.759000	4.930670
27.066700	544.789000	5.171780
28.418200	545.190000	5.146500
27.976200	570.520000	4.856880
30.355400	596.430000	4.959290
28.244800	598.295000	5.383330
32.705100	595.879000	4.895750
33.726700	594.920000	4.841220
31.369800	595.468000	4.841620
31.079100	594.100000	4.704010
12.941700	596.779000	5.264510
20.192800	597.592000	6.113150
19.779800	598.930000	6.126420
15.654100	596.155000	5.465720
14.722400	595.120000	5.347420
17.009900	595.840000	5.583750
17.447100	594.508000	5.530040
12.851600	593.076000	5.170300
14.843300	582.698000	4.907300
15.622400	580.014000	4.840660
13.861700	581.688000	4.890280
14.256600	580.341000	4.858100
17.953600	580.684000	4.886750
18.915300	581.702000	4.946750
16.594200	581.028000	4.869180
16.218200	582.383000	4.899690
18.583600	583.076000	4.951720
17.206100	583.397000	4.932560
22.040900	588.590000	4.987140
24.771800	588.383000	4.543990
24.136900	589.613000	4.592920
22.822500	589.756000	4.880120
24.163100	587.141000	4.811780
22.651400	587.236000	4.948750
27.414900	600.640000	5.715000
27.183600	599.201000	5.709450
25.970000	598.560000	6.003420
27.031800	592.872000	4.643060
25.613000	592.914000	4.803470
25.206100	594.262000	5.101120
29.380200	592.320000	4.539990
28.022800	591.900000	4.508840
25.578800	576.210000	5.285130
24.160500	576.389000	5.174300
26.062100	577.519000	5.537050
25.003000	578.446000	5.586960
23.782900	577.774000	5.349340
19.529700	575.283000	4.679690
21.869900	575.888000	4.851060
20.878300	574.919000	4.684020
34.895000	562.400000	4.983980
34.180900	564.717000	5.038940
33.862700	563.352000	5.004230
20.704300	546.590000	5.378880
36.959000	560.477000	4.960970
35.760300	571.509000	5.103550
35.124400	568.800000	5.088830
36.790600	570.556000	5.087860
36.471900	569.192000	5.082330
30.792400	566.233000	5.042760
33.463100	567.040000	5.078520
33.153200	565.673000	5.060110
31.810600	565.271000	5.046550
28.728700	568.179000	4.885830
26.402400	568.745000	4.426740
27.704300	569.155000	4.752610
23.956200	569.090000	4.000730
22.583400	569.548000	4.191400
25.270000	569.650000	4.333760
23.117600	571.899000	4.493140
22.175800	570.883000	4.372350
25.556400	571.025000	4.578070
24.549000	571.997000	4.603070
18.429300	570.594000	4.602050
19.790400	570.259000	4.501130
15.553600	567.576000	4.918410
17.462000	569.589000	4.706790
16.102900	569.924000	4.773930
15.141900	568.913000	4.865570
35.405400	553.658000	4.946590
36.029300	556.391000	4.928180
35.098100	552.290000	4.962670
36.117500	551.328000	4.961870
28.755300	546.552000	5.164020
30.459600	548.317000	5.119590
30.104000	546.959000	5.118540
35.857100	544.905000	5.007180
23.439500	545.944000	5.311570
26.026700	545.749000	5.235750
24.702100	545.290000	5.245650
30.067400	568.576000	5.006760
31.089100	567.605000	5.054260
32.435300	568.000000	5.081020
36.026400	577.903000	5.124510
29.662900	577.274000	5.400480
30.657600	576.303000	5.294710
27.442900	584.217000	5.206180
27.741300	585.541000	4.959950
28.514700	583.291000	5.293360
29.859000	583.665000	5.157610
37.290800	583.347000	4.966690
36.809300	592.053000	4.819580
36.092800	594.371000	4.871190
35.782400	593.006000	4.809290
35.369600	596.689000	4.977930
15.777700	599.870000	5.532910
16.171200	598.528000	5.582920
15.238300	597.493000	5.465600
13.882100	597.811000	5.349050
12.661600	601.837000	5.243690
14.021700	601.523000	5.340020
14.421600	600.182000	5.396930
13.476800	599.153000	5.324650
21.544600	597.277000	6.236550
22.045700	595.998000	5.960050
23.439200	595.777000	5.804100
24.326800	596.845000	6.001690
24.352500	600.355000	6.482380
24.752300	599.073000	6.453190
23.768900	598.064000	6.460510
22.422700	598.309000	6.507420
16.521700	593.467000	5.391560
16.031000	591.097000	5.223300
16.966700	592.135000	5.325510
14.660600	591.419000	5.185920
14.217500	592.753000	5.222310
15.157300	593.785000	5.320190
26.698000	596.371000	5.300200
26.390000	595.055000	5.057170
27.987000	596.908000	5.192280
29.032500	596.005000	4.948110
28.768900	594.647000	4.759590
27.474800	594.209000	4.772650
26.143600	588.670000	4.418850
27.107200	587.742000	4.574040
26.382000	590.075000	4.399950
27.697700	590.536000	4.434820
21.094400	545.258000	5.291060
22.427300	544.962000	5.265500
14.742700	545.445000	5.155950
21.476500	577.240000	4.979160
22.456900	578.227000	5.218750
22.022200	579.577000	5.282940
20.673300	579.972000	5.086440
17.780800	576.979000	4.755010
19.139400	576.625000	4.765300
18.352700	579.333000	4.868180
17.380300	578.324000	4.803080
19.708300	578.966000	4.939920
20.119900	577.621000	4.889840
37.199300	545.316000	4.997370
35.840100	566.479000	5.062210
35.526200	565.114000	5.043150
19.132800	564.231000	4.943900
17.652900	552.195000	5.640980
16.107200	545.131000	5.183410
16.631500	547.493000	5.316070
17.576000	548.521000	5.418320
18.941300	548.221000	5.458160
17.050600	546.160000	5.262020
19.345500	546.889000	5.376850
18.414400	545.849000	5.286340
37.272200	561.842000	4.983670
36.241100	562.796000	4.997080
36.556500	564.161000	5.022940
24.024600	567.774000	3.490180
13.062500	550.787000	5.238640
31.793700	548.734000	5.067290
31.126800	546.000000	5.079480
21.673200	547.599000	5.459120
23.029800	547.251000	5.416540
30.363200	569.944000	5.032800
30.992500	572.638000	5.112440
29.637000	572.261000	5.056820
29.323800	570.899000	4.990600
33.380500	572.072000	5.121100
32.744500	569.367000	5.090660
32.029600	571.688000	5.106630
31.713300	570.324000	5.081530
34.412100	571.119000	5.108940
34.093600	569.754000	5.098530
33.667500	578.465000	5.207730
33.015300	575.745000	5.202420
34.358900	576.143000	5.172050
34.684800	577.504000	5.169170
31.999100	576.703000	5.260910
32.328300	578.066000	5.275280
29.986800	578.638000	5.446470
31.321900	579.034000	5.346420
34.444000	592.598000	4.746470
33.422300	593.554000	4.747140
32.089000	593.139000	4.672640
36.977200	581.984000	5.014490
36.344300	579.266000	5.097950
34.611200	582.545000	5.041200
33.982600	579.828000	5.172520
35.635200	581.587000	5.054670
35.323000	580.225000	5.108510
34.921800	583.906000	4.962960
36.264400	584.300000	4.934900
36.578300	585.663000	4.883130
35.549300	586.612000	4.834460
28.789500	601.053000	5.541710
12.955900	547.095000	5.148910
13.483600	549.453000	5.233040
12.534800	548.429000	5.164940
14.845000	549.136000	5.297990
15.267600	547.804000	5.267800
14.319500	546.779000	5.189180
37.186700	566.874000	5.057490
17.323200	565.903000	4.946220
18.674300	565.555000	4.871070
16.912400	567.240000	4.878280
17.867400	568.252000	4.743860
31.483200	563.907000	5.006480
32.516000	562.957000	4.985700
22.936900	566.873000	3.443810
13.232800	566.893000	4.997330
14.593900	566.563000	4.992990
14.006900	551.812000	5.316380
15.362700	551.492000	5.410540
16.301100	552.517000	5.520450
37.053400	555.431000	4.935570
36.746100	554.064000	4.940620
34.466000	549.549000	4.994350
36.502800	547.637000	4.986620
35.804200	549.962000	4.974780
36.824100	549.001000	4.975750
34.833100	545.861000	5.011260
35.163000	547.225000	4.999920
34.144400	548.185000	5.007860
32.806800	547.771000	5.037150
32.469700	546.410000	5.047050
33.491100	545.450000	5.030750
23.978000	548.233000	5.472770
27.669700	579.232000	5.659620
28.996700	579.621000	5.550810
29.286100	580.981000	5.476770
26.643600	580.181000	5.730590
26.939800	581.546000	5.652370
28.261400	581.935000	5.494210
28.428500	588.205000	4.568390
28.735300	589.580000	4.486300
33.173400	587.158000	4.770780
34.206600	586.214000	4.836740
33.892000	584.855000	4.919100
32.548400	584.464000	4.968500
33.489800	588.520000	4.712100
34.120800	591.236000	4.701480
33.269700	582.153000	5.110110
32.242800	583.108000	5.091050
31.628400	580.398000	5.297520
32.965500	580.790000	5.194950
30.902300	582.724000	5.196360
30.615700	581.366000	5.330210
36.492200	590.690000	4.790350
35.863900	587.976000	4.796550
35.150600	590.286000	4.739260
34.832700	588.923000	4.743420
37.206300	588.376000	4.825640
37.434400	594.772000	4.915390
35.991500	599.399000	5.100520
36.308500	600.763000	5.130700
35.272600	601.707000	5.177890
31.528500	601.869000	5.346320
33.923300	601.315000	5.218780
25.047200	601.517000	6.129330
26.411600	601.704000	5.849380
31.582900	558.879000	4.916710
32.195300	561.593000	4.941870
34.580600	561.036000	4.951280
33.961000	558.319000	4.917230
33.233200	560.643000	4.931910
32.929000	559.276000	4.914780
35.613200	560.082000	4.944260
35.305600	558.716000	4.927140
31.300600	557.506000	4.952830
29.967300	557.097000	5.029580
19.593900	566.566000	4.646700
20.903200	566.208000	4.365170
19.220300	567.915000	4.620690
21.743300	567.236000	3.972020
21.515100	568.588000	4.202620
20.178800	568.926000	4.455530
20.499300	563.882000	4.827520
21.382200	564.881000	4.459300
12.684600	564.543000	5.065760
37.457500	551.736000	4.955810
19.470300	550.564000	5.668490
19.900400	549.237000	5.570640
21.273600	548.942000	5.572570
26.366500	547.119000	5.289290
25.400400	548.129000	5.399800
27.736000	547.517000	5.237970
25.871700	549.462000	5.462680
29.104800	585.934000	4.874150
29.456500	587.277000	4.702140
30.160600	585.012000	4.974540
30.795100	587.693000	4.689060
31.508300	585.402000	4.904230
31.830600	586.758000	4.781670
30.407200	591.363000	4.538930
30.078900	589.999000	4.528930
31.113200	589.056000	4.608480
32.456400	589.464000	4.644120
31.750500	591.779000	4.604360
32.779300	590.827000	4.639740
36.713800	597.087000	5.000900
37.025400	598.451000	5.052590
33.606000	599.953000	5.183700
32.994700	597.246000	5.015800
34.338800	597.642000	5.036160
34.644100	599.007000	5.110390
31.206200	600.505000	5.319120
29.575500	598.733000	5.291220
29.849400	600.109000	5.390540
32.255700	599.564000	5.211540
30.621200	597.796000	5.119470
31.962700	598.198000	5.115920
22.725100	601.961000	6.185530
20.382100	601.316000	6.073130
22.969500	600.608000	6.517640
20.698900	599.968000	6.281020
22.012100	599.627000	6.531130
15.889100	553.853000	5.501420
16.368800	564.893000	5.039000
15.008900	565.227000	5.044800
14.046500	564.217000	5.081050
32.743400	552.846000	5.012590
33.759500	551.881000	4.991030
32.114400	550.100000	5.056790
33.450200	550.514000	5.009970
32.026900	555.177000	4.996720
34.384900	554.620000	4.946520
33.045900	554.214000	4.980120
34.687500	555.989000	4.929020
33.663900	556.950000	4.925400
32.324200	556.547000	4.950820
27.327000	556.279000	5.411790
29.669800	555.730000	5.131960
30.691800	554.771000	5.085000
28.343400	555.317000	5.310910
28.042500	553.952000	5.397090
27.456600	551.222000	5.421550
27.172200	549.861000	5.386010
29.461000	549.286000	5.189360
28.132300	548.872000	5.266380
30.545200	559.836000	4.912350
30.843700	561.203000	4.918650
24.268500	560.411000	5.281700
25.623200	560.937000	5.035820
26.289100	567.377000	4.172830
25.164800	566.948000	3.551990
22.865900	560.912000	5.229850
22.464300	562.258000	4.927920
21.011100	562.572000	4.976170
19.994300	561.601000	5.156690
23.403500	565.537000	3.522850
22.709900	564.528000	4.155520
23.396000	563.309000	4.549710
24.788800	565.586000	3.581580
24.797300	550.362000	5.594520
23.589800	549.616000	5.598740
22.239400	549.968000	5.671600
14.138200	555.511000	5.331350
12.782100	555.829000	5.237680
13.594200	553.147000	5.302380
14.537300	554.173000	5.377190
15.085900	556.536000	5.379760
14.698000	557.876000	5.300760
15.659400	558.892000	5.305810
13.338600	558.187000	5.220460
16.801600	563.563000	5.090880
17.612900	560.921000	5.232450
18.169700	563.233000	5.073110
18.607400	561.909000	5.152060
14.464400	562.883000	5.119580
15.266800	560.227000	5.222170
16.243400	561.230000	5.195440
15.829300	562.561000	5.137400
31.407400	552.437000	5.083670
30.395100	553.405000	5.144400
29.065400	552.999000	5.279340
31.105900	551.068000	5.107120
29.774300	550.655000	5.194850
28.778200	551.632000	5.298320
26.011200	555.856000	5.711550
23.139100	554.634000	6.154720
26.717000	553.534000	5.591270
26.428100	552.158000	5.571990
24.392700	554.002000	5.971650
25.691000	554.485000	5.781600
25.112800	551.696000	5.681550
24.106100	552.593000	5.873820
21.745400	559.973000	5.478890
20.371400	560.281000	5.364300
17.998000	559.591000	5.368610
17.018600	558.587000	5.406650
19.361200	559.292000	5.485960
19.682900	557.956000	5.733150
16.824500	554.882000	5.599600
16.437600	556.222000	5.514370
18.725800	556.940000	5.737130
17.383800	557.248000	5.552450
22.133800	553.652000	6.129190
20.414600	551.590000	5.818700
22.699000	552.368000	5.952310
21.807200	551.298000	5.825200
29.196600	559.442000	4.944960
27.641700	557.645000	5.219820
28.952900	558.061000	5.040440
26.659100	558.634000	5.260190
28.142400	560.404000	4.936150
26.792800	560.013000	5.053120
30.136600	563.506000	4.968260
29.794400	562.148000	4.921970
28.429700	561.765000	4.894110
19.033100	601.619000	5.853410
18.075400	600.593000	5.797500
16.724000	600.900000	5.613010
12.939500	559.526000	5.171740
13.496400	561.874000	5.132250
13.903500	560.538000	5.174100
21.388400	556.298000	6.129310
21.011800	557.635000	5.941980
21.967400	558.640000	5.839980
22.735700	555.938000	6.201180
20.806300	553.954000	6.087890
20.427400	555.289000	6.077250
18.575000	553.225000	5.790390
19.922700	552.905000	5.918380
18.169300	554.564000	5.772250
19.092200	555.603000	5.883290
29.111000	564.458000	4.944920
29.458200	565.821000	4.973990
28.471300	566.798000	4.847450
27.183800	566.382000	4.551120
27.353200	562.694000	4.846920
25.520600	564.608000	4.213660
26.817600	565.018000	4.559550
27.768000	564.045000	4.822800
25.923600	562.317000	4.816910
24.914900	563.336000	4.540820
24.327700	559.058000	5.652040
23.250300	558.245000	5.971890
25.434300	558.204000	5.606450
25.063300	556.858000	5.871100
23.678000	556.913000	6.112500
