9.5	3.5
50	1251.26	10
35.199000	628.808000	5.026220
21.204300	633.719000	4.323760
28.829300	644.617000	4.993060
27.593600	643.990000	5.147060
32.659500	627.567000	4.957580
36.464400	629.418000	5.045710
35.919300	641.360000	4.975820
37.175700	641.976000	4.949560
23.550200	633.886000	3.987710
22.336100	634.524000	4.209020
28.630700	641.833000	5.123210
27.458800	642.597000	5.182870
34.017400	629.571000	5.047190
32.749000	628.963000	5.013890
33.417400	640.123000	5.065000
18.901700	612.384000	5.590330
12.721700	601.957000	4.980140
13.523200	595.018000	4.971310
34.063900	652.687000	4.797760
37.245200	643.375000	4.909010
36.141800	645.550000	4.842390
36.075900	644.151000	4.878400
15.240900	633.831000	5.066550
28.145800	656.537000	4.741950
25.444100	652.541000	4.845740
24.213100	650.516000	5.232830
25.436400	651.144000	4.982830
31.301300	645.859000	4.819070
29.055500	650.221000	4.760790
26.618100	648.986000	5.059520
27.874200	650.993000	4.792020
26.626300	650.379000	4.927360
30.312000	650.835000	4.724870
32.805200	652.074000	4.757900
19.990500	634.323000	4.625910
26.473600	644.782000	5.345130
26.534200	646.179000	5.306120
22.151000	640.141000	5.244340
29.885800	620.781000	4.830150
28.705600	621.562000	4.900790
28.719800	622.966000	4.868770
29.983900	623.575000	4.825560
22.287400	635.894000	4.494380
22.198500	638.693000	5.014750
23.449400	637.984000	4.920750
23.486700	636.596000	4.653330
23.591800	632.528000	3.783160
23.733700	627.481000	4.878840
30.186100	627.723000	4.925220
30.030600	624.978000	4.849440
31.383200	626.969000	4.917350
31.308100	625.571000	4.869060
28.821900	625.734000	4.871510
28.895200	627.134000	4.890020
27.093400	635.700000	4.937440
24.742000	634.515000	4.287750
25.889200	633.717000	4.408650
27.081500	634.314000	4.774540
25.917900	636.481000	4.881720
24.700800	635.874000	4.596640
34.107800	630.970000	5.094240
32.936000	631.742000	5.118570
31.567100	629.727000	5.027540
31.677100	631.126000	5.085380
30.293400	629.120000	4.971360
29.117100	629.891000	4.941260
33.653300	644.308000	4.863830
34.821400	643.532000	4.894890
34.749500	642.134000	4.953890
33.493100	641.520000	4.997580
28.337800	636.301000	5.112930
29.501100	635.506000	5.148480
30.759100	636.114000	5.194470
17.609400	612.965000	5.442160
12.590400	613.879000	5.075520
15.089100	624.682000	5.246430
14.800500	627.434000	5.193690
15.195200	612.726000	5.192120
16.483700	612.148000	5.282640
14.670000	595.821000	5.005530
15.958300	595.258000	5.086900
19.136500	611.002000	5.509950
17.483800	602.443000	5.461610
19.682800	604.075000	5.987860
14.963300	603.593000	5.150840
19.397100	650.459000	5.431780
23.004600	651.257000	5.237580
21.807400	650.568000	5.478120
20.574000	651.232000	5.352430
20.506900	652.631000	5.119310
36.710200	656.715000	4.943680
35.386600	654.701000	4.875480
34.128700	654.086000	4.832950
35.452800	656.099000	4.911420
34.276700	656.869000	4.912190
36.562200	653.930000	4.882270
37.396800	646.168000	4.853000
15.084000	635.226000	5.019660
14.783200	638.004000	4.936720
18.206800	629.859000	5.091890
17.067700	629.045000	5.161750
30.364800	652.233000	4.727290
31.626100	652.844000	4.750940
27.912900	652.391000	4.748150
29.178300	652.995000	4.730710
29.243300	654.391000	4.746270
28.050500	655.141000	4.733270
26.773500	654.539000	4.715880
26.712400	653.143000	4.758480
21.942100	646.489000	6.512480
21.861100	649.200000	5.804720
25.413400	648.367000	5.372470
25.422000	646.984000	5.562530
24.270400	646.366000	6.020790
23.124300	647.145000	6.205200
24.248500	649.140000	5.494730
23.072700	648.503000	5.874540
31.437700	648.662000	4.739190
32.746000	650.676000	4.739640
31.488700	650.061000	4.725000
32.551400	646.483000	4.784810
34.972400	646.326000	4.808410
33.719000	645.705000	4.812090
32.608000	647.882000	4.751800
28.896500	646.014000	4.933470
30.138200	646.641000	4.825970
27.747600	646.804000	5.038950
30.186300	648.040000	4.777280
27.778800	648.200000	4.952840
29.018700	648.822000	4.809510
17.072200	639.649000	4.941480
25.276300	644.155000	5.659060
24.268000	644.973000	6.117570
20.743700	640.740000	5.292420
18.229200	640.459000	5.026950
19.566300	639.913000	5.076990
23.987100	619.031000	6.195900
17.263600	627.655000	5.190560
16.098900	626.864000	5.212460
16.251400	625.472000	5.249610
17.548500	624.911000	5.292130
18.726500	625.690000	5.253090
18.576400	627.083000	5.185260
23.891100	621.779000	5.570240
23.513700	640.779000	5.376710
23.756900	642.158000	5.682770
26.191400	641.984000	5.306980
25.054100	642.761000	5.545190
25.924200	637.867000	5.060140
26.052000	640.595000	5.246200
24.703900	638.611000	5.076750
24.743800	640.008000	5.231510
22.914300	630.380000	4.234250
20.300400	631.476000	4.671800
21.305700	632.324000	4.274030
22.485900	631.717000	3.972830
23.769200	626.014000	5.020990
23.838100	623.171000	5.342760
21.233600	625.892000	5.176240
20.032700	625.123000	5.281030
22.600800	623.866000	5.342550
22.533500	625.282000	5.174020
27.685600	627.889000	4.868270
27.833200	629.286000	4.844060
26.361400	627.309000	4.861180
25.124200	628.100000	4.776750
33.254900	637.339000	5.160290
36.545300	630.816000	5.077970
35.369400	631.585000	5.103590
28.139400	632.092000	4.870610
29.266400	631.287000	4.986040
30.517000	631.908000	5.081980
30.600900	633.309000	5.129110
29.449400	634.106000	5.090040
28.208100	633.494000	4.925580
32.400800	643.687000	4.901580
31.234800	644.463000	4.882650
29.987000	643.838000	4.957430
32.322400	642.292000	4.977330
29.891000	642.444000	5.035980
31.065200	641.679000	5.040490
28.382100	637.695000	5.176230
28.532600	640.441000	5.170780
27.191100	638.457000	5.165150
27.255400	639.849000	5.201270
32.503100	624.810000	4.855260
13.720300	614.699000	5.137410
14.996200	614.115000	5.209150
12.794500	623.051000	5.192870
12.646400	624.444000	5.178340
13.798300	625.245000	5.202850
13.643900	626.637000	5.184490
14.502100	597.210000	4.985530
13.217000	597.783000	4.945490
13.041300	599.172000	4.945410
18.410600	595.490000	5.280970
17.113500	596.053000	5.153200
22.940600	615.656000	7.088910
25.187900	616.897000	6.270560
22.887600	617.023000	6.900040
24.053200	617.676000	6.522640
19.982900	613.207000	5.919470
19.666700	614.581000	6.102550
21.829100	614.834000	6.911170
20.638500	615.423000	6.598880
20.466800	610.446000	5.622010
14.675100	606.374000	5.172190
18.716800	601.851000	5.729620
21.060500	600.690000	6.522700
20.956600	602.085000	6.512320
19.775900	602.682000	6.090020
13.802800	656.904000	5.177530
12.660600	634.979000	5.045820
13.799100	635.798000	5.014080
13.639200	637.190000	4.969600
18.136000	651.043000	5.270930
15.578700	652.192000	5.132240
21.718700	653.379000	4.942380
24.222800	653.288000	4.837450
22.967700	652.655000	4.997430
16.697100	631.850000	5.099280
16.515800	633.245000	5.052550
19.061700	632.083000	4.875750
17.967800	631.249000	5.050190
17.634700	634.077000	4.952200
18.893100	633.483000	4.829440
14.624700	628.826000	5.178190
15.772100	629.634000	5.169770
15.570800	631.025000	5.146890
13.332600	629.405000	5.159060
31.691200	654.240000	4.785470
33.020000	656.251000	4.872630
32.950700	654.853000	4.829200
30.507800	655.001000	4.783110
20.725300	647.104000	6.247940
19.460600	649.075000	5.658040
20.680200	648.469000	5.948720
17.228800	638.258000	4.931680
16.077400	637.444000	4.942830
17.502500	635.477000	4.932290
16.220600	636.049000	4.969120
22.753000	643.002000	6.139310
21.982200	645.121000	6.694380
23.122200	644.343000	6.491320
21.654700	617.636000	6.701300
20.531200	616.817000	6.564040
19.330400	617.403000	6.182070
26.311700	617.517000	5.746790
25.141000	619.673000	5.756810
25.093500	621.049000	5.504490
26.290400	621.700000	5.194510
27.472100	620.929000	5.077950
27.478300	619.533000	5.196580
26.294900	618.902000	5.565890
26.268900	623.101000	5.067410
27.516400	623.733000	4.925930
27.537300	625.141000	4.896020
25.053000	623.853000	5.129170
26.306600	625.895000	4.918130
25.029400	625.273000	5.012720
22.289500	628.114000	4.873010
21.935300	629.495000	4.650080
21.097500	627.298000	5.061580
19.750200	627.871000	5.098470
19.508500	629.259000	5.019700
20.612300	630.088000	4.791260
26.686100	630.081000	4.678040
26.915900	631.481000	4.622540
24.342800	630.372000	4.207040
25.368800	629.496000	4.558810
25.883700	632.328000	4.279670
24.717900	631.727000	3.937910
33.019900	633.143000	5.155610
31.855900	633.927000	5.170820
31.924400	635.327000	5.191410
33.184000	635.940000	5.178340
35.449600	632.985000	5.127510
34.278600	633.759000	5.153620
34.352900	635.160000	5.159800
29.718500	639.684000	5.167470
29.647800	638.290000	5.195750
30.983000	640.285000	5.114210
32.157500	639.514000	5.119700
32.084600	638.118000	5.167240
30.822200	637.513000	5.197040
15.227100	623.289000	5.290000
14.077900	622.484000	5.253410
16.881200	618.547000	5.597920
16.110800	614.938000	5.353410
17.373200	614.347000	5.506390
18.440800	615.176000	5.813900
15.924600	616.327000	5.397670
18.261300	616.566000	5.871940
17.024100	617.154000	5.614150
14.109700	633.007000	5.103160
14.288900	631.614000	5.137940
13.151000	630.798000	5.142740
12.827600	633.587000	5.085440
13.080500	620.276000	5.208470
15.623500	619.127000	5.418910
15.490800	620.520000	5.385670
14.216500	621.092000	5.279260
14.057200	611.914000	5.121370
12.771500	612.489000	5.073030
14.173200	599.989000	4.989890
13.997200	601.379000	5.014750
16.384700	601.617000	5.233090
15.119900	602.203000	5.117700
15.642700	598.018000	5.042410
16.929400	597.440000	5.136830
16.566300	600.228000	5.184100
15.449200	599.406000	5.050270
26.760300	604.161000	5.872650
25.569500	606.323000	5.827530
25.601800	604.937000	6.038780
33.865400	602.281000	4.999840
27.065200	612.506000	5.440720
25.947700	613.288000	5.762700
26.173000	614.684000	5.855010
25.192400	615.505000	6.371850
24.070000	614.879000	6.821710
24.409100	611.299000	5.760210
23.048000	610.661000	5.774950
23.684200	613.537000	6.503990
24.664400	612.687000	6.001230
21.647200	611.272000	5.806430
21.300600	612.639000	6.077130
22.261500	613.517000	6.552460
20.591600	609.041000	5.645750
14.530200	607.766000	5.160660
14.232500	610.525000	5.129830
13.244700	608.329000	5.096940
13.086700	609.719000	5.087240
16.675600	610.761000	5.275820
17.977500	610.202000	5.381680
15.523800	609.960000	5.200740
15.677400	608.570000	5.226070
15.952500	605.809000	5.280170
17.345100	603.837000	5.469830
16.086100	604.415000	5.289660
18.456900	604.660000	5.676080
24.424300	604.292000	6.402860
22.071200	602.895000	6.733700
15.284100	654.937000	5.138950
17.515300	656.557000	4.892250
15.092200	656.325000	5.136150
12.664600	656.089000	5.178270
15.708200	650.799000	5.139620
16.985100	650.235000	5.233220
21.669500	654.827000	4.700630
20.262400	655.436000	4.672680
19.905000	656.795000	4.354070
37.460300	647.568000	4.841190
30.585100	656.397000	4.824350
19.614500	646.285000	6.052920
18.528100	637.707000	4.917630
21.056300	636.530000	4.697790
19.901700	635.723000	4.725580
18.638100	636.307000	4.865190
20.989300	637.932000	4.893860
19.700100	638.513000	4.959270
20.390700	642.105000	5.587000
21.331700	642.981000	6.105100
20.885100	644.299000	6.446250
19.715300	644.891000	6.081200
21.595300	618.997000	6.388990
22.708400	621.083000	5.854720
22.771500	619.722000	6.187260
17.996700	619.371000	5.759950
19.230800	618.791000	6.045120
20.366700	619.599000	6.124950
29.862700	619.377000	4.860540
28.631300	618.744000	5.033420
37.017400	639.186000	5.035000
35.846500	639.962000	5.027720
34.588300	639.348000	5.071860
34.514900	637.950000	5.117520
36.709600	633.599000	5.112730
36.302300	626.646000	4.967320
35.118100	627.409000	4.979420
33.848600	626.807000	4.943670
33.774500	625.409000	4.892930
13.230200	618.883000	5.202860
14.501400	618.304000	5.291390
13.540300	616.088000	5.160090
14.661100	616.912000	5.272000
12.558700	603.349000	5.007160
13.689300	604.168000	5.075910
13.538400	605.560000	5.094050
18.058100	598.252000	5.288140
20.107800	599.860000	5.974780
18.893000	600.461000	5.658340
17.827000	599.638000	5.339170
20.897400	595.720000	5.542810
19.573300	596.282000	5.402950
20.423200	598.486000	5.800400
19.345000	597.667000	5.456830
27.356500	596.359000	5.512290
26.052200	595.766000	5.597060
23.288300	602.269000	6.987120
24.474600	602.926000	6.692260
32.757600	604.462000	5.021290
35.243000	605.706000	4.939940
33.926700	603.683000	4.984670
35.181200	604.305000	4.952100
31.507900	603.838000	5.102940
31.637700	606.640000	5.053620
34.131300	607.881000	4.938000
32.811800	605.864000	5.004080
34.068800	606.481000	4.955780
29.248600	608.201000	5.200100
26.787400	606.956000	5.562130
27.958900	604.788000	5.544300
30.384300	606.024000	5.157300
27.968700	606.184000	5.441360
29.209500	606.802000	5.251030
29.110500	603.998000	5.377650
30.345300	604.624000	5.195940
26.923100	611.110000	5.404700
25.583900	609.108000	5.569150
25.624800	610.519000	5.554610
26.795400	608.356000	5.462470
28.117700	610.357000	5.261070
28.055800	608.959000	5.295120
30.509900	608.806000	5.084290
33.021500	610.049000	4.931290
32.953200	608.650000	4.960730
31.692700	608.040000	5.026890
34.760000	620.461000	4.780620
24.332700	608.473000	5.733350
24.364700	607.065000	5.882420
23.088300	609.201000	5.759610
21.872400	608.446000	5.778970
18.123000	608.811000	5.419780
19.505300	606.857000	5.696060
19.411200	608.254000	5.575720
16.964600	608.014000	5.338230
18.356500	606.053000	5.586080
17.090700	606.621000	5.393570
20.753400	606.268000	5.937120
20.812800	604.882000	6.149970
22.025200	604.266000	6.460970
21.932600	607.039000	5.940960
23.212600	604.993000	6.353240
23.162800	606.371000	6.076360
17.751200	655.176000	4.992400
19.218300	653.224000	5.075570
19.086500	654.622000	4.930780
18.035800	652.438000	5.158440
16.738100	652.990000	5.132720
16.589300	654.380000	5.101240
13.142100	651.936000	5.082260
14.287300	652.746000	5.121040
14.132000	654.135000	5.145700
12.840400	654.701000	5.153010
13.288900	650.545000	5.044250
14.570500	649.981000	5.073330
14.705000	648.587000	5.047840
15.973200	648.010000	5.150120
18.423600	646.870000	5.652390
18.330000	648.262000	5.546490
17.088900	648.841000	5.299260
13.738100	646.366000	4.911850
13.581800	647.759000	4.957270
23.268100	656.835000	4.191530
23.029600	655.463000	4.536100
24.260400	654.689000	4.683300
25.567700	655.284000	4.657470
25.705100	656.675000	4.557120
35.239700	651.916000	4.811230
36.497300	652.531000	4.853150
15.007400	645.782000	4.965400
16.111400	646.616000	5.131390
17.357100	646.031000	5.342530
15.190400	644.391000	4.922220
20.297900	620.973000	5.860150
20.132600	623.726000	5.426030
21.404400	623.121000	5.506980
21.471500	621.736000	5.754300
16.629500	621.333000	5.461440
17.894200	620.760000	5.631410
16.510500	622.726000	5.376270
17.671800	623.519000	5.383020
18.953500	622.950000	5.487740
19.045000	621.562000	5.662830
36.944700	637.788000	5.071110
36.784400	634.999000	5.111820
35.612400	635.774000	5.130830
35.685700	637.174000	5.109340
35.390800	608.495000	4.908710
26.005200	594.355000	5.538800
28.549900	595.602000	5.373640
26.383800	598.535000	5.913400
27.505200	597.753000	5.599830
23.474800	595.918000	5.743690
22.078100	596.538000	5.744890
25.090200	597.933000	6.085660
24.836600	596.553000	5.793620
21.730000	597.908000	6.003510
22.228300	600.087000	6.886920
23.331000	600.899000	7.146530
24.469600	600.117000	6.929550
22.671800	598.773000	6.532430
24.094200	598.782000	6.563010
36.353400	603.530000	4.945690
30.576900	610.203000	5.049270
31.840000	610.813000	4.960390
29.389300	610.959000	5.125710
33.631300	622.639000	4.806290
31.139500	621.402000	4.780770
32.319900	620.622000	4.759500
33.579800	621.237000	4.775040
31.177300	622.805000	4.797150
32.444300	623.410000	4.812850
34.708200	619.058000	4.763490
36.021500	621.073000	4.818770
14.073600	643.561000	4.852860
13.323800	639.962000	4.890350
14.617600	639.394000	4.903000
13.140500	641.351000	4.860390
14.275900	642.172000	4.855610
15.765200	640.206000	4.903840
15.566700	641.594000	4.895480
18.756800	644.047000	5.567990
17.531100	644.639000	5.282210
16.457300	643.803000	5.025410
16.694100	642.418000	4.986980
17.990100	641.841000	5.106680
19.073700	642.671000	5.408320
12.616500	645.536000	4.862490
12.796400	644.145000	4.841780
36.350800	649.743000	4.814190
35.033500	647.726000	4.787070
36.288900	648.344000	4.810460
33.862300	648.502000	4.758660
33.920500	649.902000	4.757230
35.177500	650.518000	4.790570
27.348700	615.312000	5.464160
29.750200	616.553000	4.949220
27.407700	616.712000	5.425780
28.606200	617.344000	5.105300
36.500800	606.324000	4.923200
36.566700	607.723000	4.910090
37.201500	620.300000	4.835220
23.510300	594.455000	5.686580
29.075000	602.597000	5.427740
25.615300	600.747000	6.549280
26.612000	599.929000	6.053900
27.801900	600.564000	5.716770
27.867600	601.966000	5.715620
26.766100	602.771000	6.021180
25.617600	602.145000	6.480610
30.987800	617.188000	4.820980
33.452300	618.438000	4.747480
32.151700	616.406000	4.783910
33.401600	617.034000	4.754880
31.029600	618.592000	4.794420
32.279400	619.219000	4.753210
36.081000	622.473000	4.849490
36.229400	625.247000	4.925680
34.961800	624.644000	4.886720
34.897400	623.244000	4.844650
37.412900	624.480000	4.924320
37.345800	623.081000	4.890570
33.461600	595.299000	5.107390
29.684100	615.152000	4.993030
28.456200	614.519000	5.197400
28.321400	613.122000	5.228730
29.487400	612.355000	5.089920
35.884200	618.281000	4.782120
37.142900	618.898000	4.817450
31.455000	602.437000	5.123470
30.216100	601.806000	5.256790
32.615800	601.655000	5.056670
35.034100	601.506000	4.981330
36.288000	602.129000	4.958600
34.962700	600.106000	5.001310
36.135100	599.334000	4.994050
32.087200	615.004000	4.820060
30.840700	614.372000	4.906600
33.256300	614.230000	4.811180
33.178400	612.830000	4.853140
31.920900	612.210000	4.916320
30.744100	612.975000	4.960350
37.001800	616.104000	4.807850
36.938900	614.703000	4.817140
35.682600	614.082000	4.807900
34.509600	614.855000	4.787820
34.572500	616.257000	4.766610
35.827400	616.879000	4.780120
35.612700	612.682000	4.833610
34.281900	610.664000	4.886450
34.355000	612.063000	4.852810
35.459400	609.894000	4.886880
33.709600	599.480000	5.043020
32.542300	600.253000	5.078110
33.624200	598.080000	5.068940
37.390700	599.957000	4.975270
37.460500	601.357000	4.960030
35.902700	595.152000	5.049040
36.058800	597.935000	5.014830
37.235500	597.168000	5.009600
37.162100	595.769000	5.024820
34.801000	597.314000	5.047600
34.722900	595.915000	5.066840
36.718500	610.511000	4.874630
36.788100	611.911000	4.853300
29.826200	596.205000	5.286830
31.013300	595.448000	5.209370
32.278900	596.060000	5.146360
32.365900	597.459000	5.128670
30.141600	600.405000	5.270540
31.295100	599.624000	5.164480
28.909700	599.770000	5.448190
31.190800	598.225000	5.187210
28.767500	598.374000	5.435510
29.931600	597.603000	5.291390
