37.5	4.5
50	1661.82	10
22.580300	840.509000	5.493380
18.876200	843.615000	5.134550
23.936500	840.156000	5.527450
24.366200	838.870000	5.736950
33.973400	857.446000	5.315950
36.435400	853.052000	5.092420
16.514800	829.338000	5.038480
23.351700	837.920000	5.910310
17.631000	836.472000	5.176420
16.753700	835.392000	5.093100
17.274800	834.096000	5.067120
18.658500	833.875000	5.111440
19.823600	841.035000	5.296290
32.691200	823.478000	4.989640
31.335500	823.119000	5.041740
36.574400	828.206000	5.030470
23.869600	834.313000	5.411530
23.899300	836.647000	5.865150
23.162500	835.537000	5.624830
22.949000	833.235000	5.257110
21.509700	833.436000	5.213720
35.073200	852.731000	5.101880
30.035100	852.819000	5.122860
31.261100	856.806000	5.433120
30.438300	854.151000	5.247240
29.902800	856.490000	5.480440
29.485000	855.171000	5.360910
22.310000	855.342000	5.210210
20.856500	855.580000	5.142280
22.163100	841.845000	5.286530
20.767500	842.082000	5.240190
20.285800	843.392000	5.128720
24.878900	841.095000	5.258040
25.676800	846.817000	4.576900
19.895100	850.804000	4.827200
17.660200	849.936000	5.011090
19.032900	849.700000	4.907780
35.629200	837.936000	5.015370
35.330500	857.768000	5.258010
36.173900	848.018000	4.980090
36.482100	793.296000	4.645010
36.085100	791.959000	4.640910
36.731400	807.040000	4.684150
36.169600	809.393000	4.597760
37.126600	808.381000	4.694720
36.498900	802.016000	4.709540
37.289000	804.691000	4.764600
22.129000	828.512000	5.401770
20.717100	828.705000	5.289810
17.900300	829.132000	5.099560
16.009700	830.641000	5.004110
15.003800	833.235000	4.997780
16.388200	833.016000	5.019080
16.903900	831.718000	5.018290
14.623900	830.853000	4.979740
14.115200	832.155000	4.977160
21.622100	839.487000	5.583770
22.029600	838.170000	5.748400
20.265000	839.721000	5.424330
19.386000	838.632000	5.373890
19.003400	836.234000	5.264060
19.857900	837.316000	5.412100
21.212000	837.067000	5.585610
19.545400	834.945000	5.219180
20.931300	834.709000	5.302490
21.779400	835.777000	5.521610
17.133500	837.778000	5.186970
18.014000	838.862000	5.257840
23.942500	826.900000	5.685320
22.579900	827.193000	5.600000
26.034800	831.831000	5.299260
27.098700	830.852000	5.306330
32.625100	832.241000	5.110540
33.030500	833.589000	5.090320
26.227700	826.755000	5.605390
26.792700	829.461000	5.375580
25.145700	827.661000	5.572420
25.462100	828.999000	5.439340
30.766000	825.471000	5.184890
30.366500	824.123000	5.175810
29.016600	823.753000	5.307360
28.055000	824.763000	5.477270
33.664600	822.473000	4.909730
35.603600	820.469000	4.813620
35.023200	822.820000	4.908070
35.996500	821.813000	4.869560
37.356900	822.149000	4.893850
37.353700	830.882000	5.042420
36.186900	826.858000	5.014190
35.414700	824.165000	4.953670
33.084400	824.824000	5.029600
34.441700	825.173000	5.001260
34.823300	826.523000	5.027890
32.115500	825.833000	5.105090
33.845300	827.532000	5.070070
32.484200	827.189000	5.111350
31.867100	829.559000	5.145170
31.507200	828.200000	5.162150
22.409700	830.905000	5.226550
23.011900	829.620000	5.333650
24.431600	829.896000	5.362270
24.700000	831.329000	5.294730
23.401900	831.930000	5.234850
32.345200	852.102000	5.089250
30.981000	851.794000	5.057140
33.846300	848.725000	4.971550
32.884700	849.743000	4.986640
33.299900	851.080000	5.042760
34.664100	851.395000	5.056070
35.623100	850.375000	5.024230
35.212600	849.037000	4.991130
34.117600	853.752000	5.158900
34.524500	855.088000	5.206080
33.571800	856.108000	5.283690
32.212600	855.789000	5.323850
32.754900	853.436000	5.166070
31.802500	854.456000	5.248720
30.557300	850.463000	4.962920
31.107500	848.100000	4.902040
31.515900	849.439000	4.948590
26.503300	849.596000	4.582390
29.184700	850.170000	4.886420
28.942900	857.489000	5.637550
27.581800	857.158000	5.689730
23.187200	856.489000	5.474070
24.698200	856.564000	5.617080
26.302300	840.884000	5.155380
25.081600	845.516000	4.722160
23.142500	842.880000	5.115690
24.506000	842.486000	5.093830
15.802200	851.477000	5.057280
17.186800	851.256000	5.030600
22.810700	846.599000	4.546800
23.558400	845.379000	4.749120
22.677500	844.229000	4.962930
21.215400	844.457000	5.010780
21.642200	849.243000	4.455730
21.243000	850.566000	4.616620
13.921900	853.004000	5.047660
15.310200	852.790000	5.050880
13.798200	856.698000	5.002820
14.311100	855.392000	5.021060
13.416800	854.312000	5.030770
13.029300	851.922000	5.056430
20.854700	848.126000	4.672760
19.505000	848.376000	4.874910
20.608800	845.737000	4.932290
21.433100	846.829000	4.711540
14.145700	845.602000	5.116370
12.761600	845.828000	5.100760
16.049100	844.072000	5.134290
14.661700	844.299000	5.123770
34.738200	791.633000	4.497640
30.241700	789.376000	4.310300
27.938200	790.119000	4.146160
14.688700	857.782000	4.995480
14.170000	859.084000	4.977330
15.052300	860.175000	4.977290
16.781400	862.353000	5.010760
15.750200	864.974000	4.965080
15.236300	866.275000	4.956200
13.856100	866.495000	4.916510
12.986800	865.399000	4.907220
15.398500	862.571000	4.962120
14.527300	861.476000	4.955470
14.883000	863.876000	4.941050
13.499700	864.095000	4.918700
16.101000	867.372000	5.020070
36.285200	856.750000	5.195360
35.884500	855.410000	5.174380
36.840500	854.392000	5.120750
36.986900	850.694000	5.028820
37.394100	852.033000	5.054950
29.884900	844.103000	4.871500
30.296900	845.438000	4.865310
32.070500	847.080000	4.911130
33.437800	847.385000	4.940920
31.663900	845.738000	4.894260
32.620200	844.711000	4.912980
35.764600	846.677000	4.961970
36.727000	845.659000	4.964800
34.397900	846.363000	4.944020
33.988100	845.022000	4.933220
37.029000	790.942000	4.765280
36.763100	815.771000	4.698330
36.559600	810.734000	4.625860
37.340800	813.421000	4.694560
12.730900	832.371000	4.970390
20.183300	829.996000	5.171880
20.575200	832.382000	5.133530
21.049500	831.083000	5.162940
19.184800	832.583000	5.087680
18.291700	831.505000	5.056090
18.797900	830.204000	5.099740
15.617700	828.264000	5.034660
36.605900	836.926000	5.022920
21.637800	826.132000	5.680610
27.826800	833.586000	5.234460
25.405300	834.338000	5.383580
26.384200	833.237000	5.297810
30.237600	832.912000	5.160910
28.474900	831.212000	5.249020
28.844000	832.577000	5.211230
29.502000	830.227000	5.230460
30.871100	830.563000	5.172520
31.246600	831.917000	5.146570
34.255400	837.612000	5.024890
33.837600	836.268000	5.047020
27.828000	828.499000	5.374050
27.531200	827.134000	5.467720
29.172400	828.863000	5.278090
30.151100	827.849000	5.238330
29.807600	826.483000	5.276840
28.471500	826.112000	5.413080
37.164300	825.850000	4.986460
36.775600	824.504000	4.956490
34.994000	831.563000	5.071710
34.223000	828.884000	5.076110
35.591200	829.212000	5.054130
35.982300	830.561000	5.056540
33.620400	831.241000	5.095460
33.235700	829.890000	5.104660
25.698700	855.570000	5.412200
25.356500	854.257000	5.159440
27.111600	855.859000	5.479820
28.118500	854.882000	5.337090
22.761700	853.986000	5.018010
24.118400	853.586000	4.981890
21.784400	852.944000	4.863710
22.187500	851.606000	4.632420
24.486200	852.205000	4.740660
23.538300	851.262000	4.503000
27.750800	853.562000	5.153170
26.413600	853.306000	5.054630
28.673000	852.527000	5.057790
28.230700	851.209000	4.898100
25.908600	852.000000	4.814870
26.849300	850.942000	4.754830
26.655300	858.151000	5.951940
25.292600	857.810000	5.989950
29.068300	841.421000	4.970520
27.240100	839.812000	5.184840
29.572600	839.033000	5.067660
28.626000	840.088000	5.064840
29.738600	847.794000	4.849720
29.329700	846.451000	4.836360
27.423700	848.524000	4.693180
28.788100	848.828000	4.810860
27.029700	847.159000	4.698060
27.963200	846.136000	4.793040
28.513800	843.812000	4.862560
28.149300	842.473000	4.924610
26.808000	842.207000	4.982900
27.502500	844.808000	4.822570
25.748000	843.168000	4.948250
26.087500	844.504000	4.829480
15.700800	855.176000	5.030040
16.209000	853.870000	5.041670
22.947300	849.002000	4.196790
24.875100	847.881000	4.309660
23.509400	847.733000	4.239160
25.191700	849.265000	4.334900
23.957700	849.974000	4.273330
18.662300	847.281000	5.005080
16.945600	845.147000	5.121050
18.336200	844.909000	5.101300
19.218800	845.988000	5.023540
15.032300	846.684000	5.115210
16.413900	846.445000	5.110600
17.288600	847.532000	5.071560
16.787700	848.843000	5.063780
14.914400	850.390000	5.075340
15.407100	849.077000	5.086760
14.524600	847.990000	5.102720
13.529000	850.613000	5.072530
12.640100	849.527000	5.078040
13.141400	848.218000	5.093280
13.766800	843.221000	5.113140
16.563300	842.770000	5.149590
17.536800	840.175000	5.215830
17.954600	842.554000	5.169140
18.440500	841.248000	5.225300
13.379100	840.839000	5.096640
14.273400	841.916000	5.118220
16.154100	840.392000	5.161570
15.659700	841.699000	5.143600
34.187400	862.481000	5.339470
34.235700	871.173000	4.907150
32.874900	870.842000	4.933140
35.541400	794.313000	4.496940
23.154700	795.118000	4.142030
25.077900	793.482000	3.851020
26.011000	792.308000	3.904540
22.733100	792.716000	4.308250
23.670400	793.747000	4.119550
20.268500	856.876000	5.169900
16.441300	859.955000	5.012540
17.313800	861.055000	5.046600
17.476300	867.158000	5.121850
20.775900	871.487000	6.066180
13.350200	867.801000	4.911370
13.142400	861.699000	4.940640
12.625900	863.001000	4.924990
29.372300	858.817000	5.722310
28.237800	872.241000	4.969660
37.280400	843.299000	4.970280
36.315500	844.318000	4.959890
34.947700	843.998000	4.947320
34.533500	842.657000	4.952590
37.154700	817.114000	4.748170
36.183300	818.121000	4.739730
36.576400	819.462000	4.796080
36.192400	835.581000	5.037350
35.394300	832.909000	5.062700
34.817800	835.259000	5.050800
34.406600	833.913000	5.068080
36.768300	833.232000	5.047320
37.175200	834.576000	5.037730
23.439200	820.996000	6.182460
24.797900	821.208000	6.037840
35.531400	803.020000	4.628530
35.936500	804.356000	4.658230
31.355300	805.684000	4.024340
22.852900	822.250000	6.342350
22.054400	824.814000	5.927780
19.365900	811.781000	5.031240
31.491800	836.961000	5.064220
30.664800	834.260000	5.127330
32.042700	834.594000	5.093770
32.462600	835.940000	5.066830
33.284900	838.631000	5.013360
33.708400	839.972000	4.987720
31.910100	838.308000	5.031180
30.950900	839.340000	5.020680
33.163900	842.342000	4.944100
32.208400	843.372000	4.918160
32.749300	840.999000	4.966800
31.379500	840.682000	4.975140
30.837800	843.066000	4.906510
30.435700	841.720000	4.944710
25.261900	836.753000	5.697210
26.041600	835.651000	5.446700
25.588300	838.139000	5.620390
26.896600	838.455000	5.341350
17.600500	853.657000	5.036670
19.461000	852.126000	4.935780
18.079300	852.344000	5.009460
18.519100	854.727000	5.047690
20.395400	853.187000	4.953430
19.925700	854.506000	5.051550
12.989600	838.451000	5.063020
13.878400	839.532000	5.095220
15.754900	838.004000	5.127940
15.261400	839.314000	5.128410
37.081200	859.432000	5.201980
35.723100	859.109000	5.261350
34.765300	860.126000	5.321440
35.152300	861.469000	5.297490
30.134100	870.197000	5.056110
36.624000	789.605000	4.776810
37.266500	795.980000	4.706380
35.922800	795.653000	4.538140
33.276900	795.000000	4.084730
31.954500	794.664000	3.822120
34.205200	793.983000	4.293110
33.804500	792.648000	4.302960
28.357100	791.428000	3.924130
27.426700	792.464000	3.721120
32.030000	791.000000	4.228650
30.205100	793.002000	3.698910
32.463100	792.321000	4.126240
31.545900	793.331000	3.862430
30.668700	790.694000	4.145690
29.734800	791.706000	3.909450
27.953100	793.687000	3.352940
29.302700	794.009000	3.392540
32.969700	789.989000	4.432610
34.324800	790.303000	4.539710
21.769300	795.362000	4.349240
13.699400	802.805000	5.003940
26.565900	789.856000	4.202750
25.662000	790.958000	4.125220
16.078200	857.561000	5.013830
16.598900	856.254000	5.028620
16.961600	858.649000	5.030720
18.350400	858.425000	5.087900
17.991300	856.032000	5.050310
18.878900	857.115000	5.089930
24.171300	862.360000	6.024640
23.177000	863.229000	5.709500
17.637900	863.457000	5.047770
17.132900	864.763000	5.026100
17.995300	865.865000	5.104060
18.345000	868.236000	5.286490
17.816300	869.531000	5.296400
20.537400	869.079000	5.782660
19.715900	868.010000	5.464610
18.652300	870.619000	5.508350
19.981900	870.375000	5.820500
15.591900	868.673000	5.015890
14.217400	868.896000	4.944280
16.455000	869.763000	5.120720
12.781900	859.306000	4.967920
32.829500	862.164000	5.434270
22.084700	871.237000	6.349680
31.914700	871.854000	4.845790
30.552900	871.525000	4.906330
36.865900	841.958000	4.975220
37.419100	839.601000	4.996710
35.496500	841.637000	4.970290
36.047800	839.277000	4.998880
35.079100	840.294000	4.984920
13.731800	829.775000	4.975160
14.234100	828.470000	4.996500
16.116000	826.963000	5.091330
15.227900	825.880000	5.081390
22.750400	819.864000	5.808400
31.929500	812.088000	4.219080
30.226000	810.421000	3.877910
31.565000	810.749000	4.084150
33.280100	812.419000	4.359510
35.986600	813.087000	4.597690
35.598200	811.746000	4.547830
34.247500	811.412000	4.417480
28.629600	822.400000	5.262280
27.292700	822.013000	5.451970
32.154100	808.391000	4.081030
34.821100	809.057000	4.460880
33.866800	810.071000	4.349600
32.524100	809.735000	4.166430
33.631900	805.022000	4.400300
32.689600	806.033000	4.233140
34.978600	805.365000	4.549150
35.382000	806.702000	4.562250
34.431900	807.714000	4.430380
33.091100	807.374000	4.250890
25.905800	807.982000	3.179000
26.974600	807.083000	2.969640
26.512200	805.772000	3.096960
26.238000	809.291000	3.425010
27.569100	809.715000	3.475250
28.275100	807.410000	3.200020
30.827200	808.053000	3.826370
29.896000	809.082000	3.682060
28.581900	808.751000	3.397610
29.137600	806.358000	3.476570
30.450400	806.704000	3.768290
21.539200	822.448000	6.081070
21.125700	823.759000	5.915540
23.840000	823.254000	6.271690
24.343900	825.527000	5.860330
23.417800	824.544000	6.068640
25.759500	825.424000	5.754730
26.702900	824.394000	5.687220
26.362600	823.028000	5.764670
25.087700	822.606000	6.094670
19.822700	810.461000	4.899500
18.962900	809.361000	4.925280
30.117900	836.630000	5.104000
29.173200	837.675000	5.127280
27.803800	837.361000	5.240900
29.691200	835.276000	5.137630
28.316600	834.930000	5.201510
27.398500	835.980000	5.276670
13.489300	837.145000	5.050180
13.109000	834.757000	5.001020
12.604400	836.062000	5.018190
14.491400	834.536000	5.013450
15.374200	835.618000	5.056270
14.870700	836.922000	5.075710
35.200000	870.164000	4.976670
36.967400	871.829000	4.900740
36.560300	870.493000	4.962340
31.097000	869.185000	5.109310
32.460100	869.511000	5.047010
31.659500	866.852000	5.268570
30.681400	867.852000	5.233300
29.315200	867.530000	5.325690
36.691100	798.333000	4.666210
36.107000	800.678000	4.655000
37.073300	799.673000	4.728830
33.644600	796.342000	4.156520
34.976000	796.668000	4.399770
35.346000	798.009000	4.490430
27.305200	804.703000	3.432870
28.663100	805.027000	3.568730
29.711600	800.349000	3.857450
31.038900	795.683000	3.581950
29.724600	795.340000	3.307310
18.985900	795.831000	4.635450
14.577700	803.897000	5.007830
21.269100	796.686000	4.411100
19.880100	796.911000	4.562000
14.202000	801.497000	4.969100
14.062400	791.688000	4.921980
15.940400	790.147000	4.881180
14.560200	790.377000	4.919560
24.469800	858.849000	6.286610
24.912100	860.160000	6.426850
23.839600	861.039000	6.203180
21.791400	862.923000	5.497240
19.015500	863.256000	5.144700
19.375700	865.675000	5.203930
20.289800	866.737000	5.367870
21.189700	864.203000	5.344330
19.843000	864.372000	5.207010
23.984400	870.049000	6.106320
21.906500	868.841000	5.985440
22.622800	869.951000	6.320690
15.974000	871.076000	5.089940
13.728000	870.207000	4.938880
14.600800	871.299000	4.986700
32.450800	860.821000	5.480600
31.098800	860.497000	5.598980
30.718300	859.153000	5.604700
33.409200	859.806000	5.403900
31.668200	858.139000	5.482620
33.021500	858.465000	5.402420
30.143700	861.514000	5.693240
25.592000	871.716000	5.535080
24.317700	871.430000	5.968190
23.107200	872.180000	6.115920
18.196900	871.939000	5.407410
16.841300	872.168000	5.187320
13.845400	826.084000	5.029770
13.345700	827.389000	4.997170
17.497700	826.765000	5.181670
18.406200	827.834000	5.190550
19.794900	827.638000	5.313190
20.262500	826.335000	5.488300
13.462800	823.693000	5.059990
12.963300	824.997000	5.027130
33.665600	813.758000	4.448950
32.688900	814.759000	4.443760
35.407000	815.437000	4.617820
35.018700	814.094000	4.552860
25.651300	816.610000	4.847500
23.498200	818.682000	5.456910
22.618800	817.502000	5.266330
25.590200	820.215000	5.563400
27.383600	818.340000	4.917220
24.998000	818.915000	5.344530
25.987500	817.949000	5.022970
26.905000	820.645000	5.334220
27.840400	819.669000	5.038720
28.400800	817.386000	4.709370
29.759600	817.742000	4.673630
30.739500	816.748000	4.553380
24.744100	807.193000	3.418340
25.155700	805.828000	3.356170
25.258900	810.159000	3.806950
24.305400	812.160000	4.362790
25.544300	811.550000	4.044580
12.577500	809.129000	5.114870
14.844600	823.482000	5.114420
15.720300	824.573000	5.140780
21.362600	820.040000	5.697100
20.777100	821.321000	5.803660
17.986400	811.989000	5.119770
16.005400	817.187000	5.189600
14.617300	817.393000	5.155910
14.236600	815.006000	5.165450
13.728800	816.309000	5.146330
23.472700	807.443000	3.891890
34.791900	868.829000	5.057350
33.429700	868.505000	5.100250
33.023500	867.171000	5.196110
28.348200	868.540000	5.299550
28.772100	869.875000	5.166640
27.833500	870.913000	5.169960
26.482300	870.623000	5.404800
28.355000	800.005000	3.714210
24.491000	804.730000	3.805050
34.178600	802.689000	4.489540
33.211100	803.689000	4.378790
29.064300	802.686000	3.918590
30.067300	801.692000	4.001930
29.555200	804.008000	3.864820
31.435800	802.019000	4.164470
30.907800	804.356000	4.043480
31.858200	803.350000	4.215300
32.697900	797.356000	4.005580
31.378000	797.029000	3.710370
30.728800	799.377000	3.857930
30.416800	798.043000	3.624790
16.802400	791.249000	4.834000
17.093800	797.356000	4.779840
17.600100	796.048000	4.737930
19.479300	794.518000	4.601640
21.342600	792.972000	4.456180
20.864500	794.293000	4.472430
18.566600	793.453000	4.690840
12.694300	805.421000	5.060520
14.077700	805.205000	5.043820
13.074300	807.819000	5.098680
22.133100	797.802000	4.317400
12.680200	791.912000	4.950520
15.960100	803.679000	4.961410
17.976800	798.441000	4.741180
19.357300	798.215000	4.632370
13.321100	800.409000	4.970030
16.089600	799.972000	4.875670
17.472300	799.749000	4.800670
18.345700	800.846000	4.772220
15.584800	801.278000	4.923130
16.460900	802.372000	4.912110
17.841900	802.152000	4.834580
22.692300	860.226000	5.960680
21.096600	857.981000	5.344310
22.454700	857.740000	5.599790
23.120000	858.867000	6.006490
24.738600	868.949000	5.781620
26.076900	869.261000	5.517650
26.985000	868.211000	5.434950
26.506800	866.880000	5.553360
24.746700	865.153000	5.712960
23.435000	864.648000	5.625170
25.083100	866.548000	5.652720
24.114100	867.643000	5.720540
22.610600	867.623000	5.726790
22.159400	865.242000	5.450180
21.711500	866.546000	5.483410
27.516800	865.880000	5.580960
28.895900	866.199000	5.464670
28.172100	863.551000	5.775000
25.493400	862.819000	6.042340
25.795600	864.186000	5.844420
27.158100	864.534000	5.743040
28.800900	861.182000	5.866120
27.112800	859.478000	6.089460
28.442300	859.831000	5.906620
27.847300	862.205000	5.942470
26.216800	860.515000	6.292940
26.518700	861.863000	6.137700
31.860400	863.176000	5.474430
30.504200	862.860000	5.601520
32.241200	864.515000	5.384240
31.260000	865.517000	5.380560
29.894700	865.207000	5.487370
29.526000	863.867000	5.623380
20.243100	812.884000	5.029120
21.607100	812.673000	4.865960
24.825400	814.465000	4.637120
23.898200	813.451000	4.620420
24.436800	815.844000	4.870260
23.074300	816.158000	5.055920
22.542100	813.733000	4.846950
22.120700	815.075000	5.022780
33.271300	821.130000	4.843490
34.245200	820.126000	4.784500
30.356300	815.405000	4.426830
30.942000	813.079000	4.224970
31.335100	814.415000	4.358750
26.728800	815.706000	4.608520
28.054800	816.050000	4.560050
29.003300	815.050000	4.397780
26.246800	814.373000	4.467860
14.100600	818.694000	5.131820
12.716500	818.907000	5.096990
13.347600	813.921000	5.153270
17.098200	824.371000	5.248380
19.787800	823.964000	5.633290
19.345300	825.270000	5.467210
17.976400	825.463000	5.290150
19.427600	821.539000	5.563130
18.944100	822.852000	5.512960
17.578800	823.061000	5.327760
16.121900	813.499000	5.184510
15.624700	814.807000	5.187450
17.509400	813.303000	5.172310
16.521100	815.887000	5.199340
21.690600	808.956000	4.472340
21.179000	810.247000	4.688890
23.885100	809.881000	4.065600
23.045900	808.758000	4.126310
22.012000	811.357000	4.666270
23.323900	811.143000	4.386350
37.473100	860.773000	5.189180
36.511000	861.788000	5.227380
29.096300	797.707000	3.370630
28.058000	798.644000	3.488300
28.804700	796.367000	3.149620
25.186800	803.477000	3.897870
26.677700	803.443000	3.739390
27.643600	802.355000	3.848630
27.306600	800.969000	3.823500
25.995200	800.474000	3.903600
22.884100	802.604000	4.333850
23.755500	800.037000	4.191720
24.727900	801.077000	4.097890
24.294300	802.392000	4.135370
32.428800	801.032000	4.240270
32.067700	799.696000	4.092450
33.780800	801.355000	4.419550
34.756700	800.356000	4.498650
34.383600	799.016000	4.391460
33.045100	798.697000	4.164050
18.179900	791.026000	4.769480
18.655800	789.704000	4.772310
20.022100	789.478000	4.693550
20.807800	790.614000	4.591210
20.394200	791.930000	4.581510
19.029600	792.141000	4.686380
17.189400	793.662000	4.776720
16.703500	794.971000	4.793220
14.936100	792.783000	4.887530
16.317400	792.565000	4.835870
12.940600	798.016000	4.948990
13.824400	799.103000	4.939420
15.207800	798.883000	4.892130
15.710900	797.576000	4.853650
14.457500	807.605000	5.087110
14.955500	806.297000	5.049640
16.834700	804.773000	4.946410
17.214100	807.174000	4.981120
16.337700	806.081000	4.999330
19.726800	800.630000	4.661860
20.591000	801.735000	4.606820
21.591700	799.099000	4.432110
20.218900	799.315000	4.583090
21.966700	801.534000	4.453280
22.416400	800.223000	4.373490
22.129300	790.416000	4.472770
23.141100	791.392000	4.329870
24.342400	790.646000	4.258440
20.950900	861.787000	5.428110
21.395100	860.460000	5.570990
18.703700	860.848000	5.142190
19.562000	861.966000	5.224230
19.208100	859.532000	5.177190
20.585800	859.317000	5.351890
20.724600	815.274000	5.134920
17.914500	815.696000	5.209690
19.794200	814.202000	5.128840
18.406100	814.390000	5.181240
31.914900	820.776000	4.851890
30.940800	821.773000	4.973220
29.589000	821.404000	5.047860
31.518600	819.435000	4.762650
29.186900	820.060000	4.942850
30.164500	819.076000	4.781240
32.494000	818.436000	4.678720
33.076500	816.098000	4.540550
32.097800	817.097000	4.583940
34.433100	816.441000	4.609610
34.825700	817.782000	4.682690
33.851200	818.784000	4.710170
26.859000	812.012000	4.000000
27.200000	813.363000	4.231820
27.878200	811.056000	3.769540
29.229000	811.405000	3.905610
29.582700	812.740000	4.118140
28.580900	813.718000	4.240140
12.584100	822.603000	5.051960
13.087300	821.298000	5.079270
13.459100	810.219000	5.134830
12.962600	811.527000	5.141990
15.233900	812.411000	5.170620
13.847700	812.615000	5.160000
18.601300	820.436000	5.386230
16.894600	818.269000	5.216490
15.341900	822.175000	5.155240
16.720000	821.961000	5.245990
14.469300	821.084000	5.123890
14.980200	819.781000	5.149840
16.362200	819.565000	5.205540
17.227000	820.657000	5.270600
36.902500	863.128000	5.195290
27.493100	796.013000	3.038960
25.714700	794.671000	3.463000
27.072400	794.696000	3.142870
15.321800	795.184000	4.859270
14.823900	796.492000	4.881900
13.059200	794.312000	4.933660
14.441900	794.094000	4.895550
12.559600	795.620000	4.944920
13.441200	796.708000	4.927270
18.214400	804.557000	4.855450
20.087100	803.036000	4.673200
18.711400	803.251000	4.797200
21.158100	817.672000	5.308680
20.238400	816.585000	5.226920
20.553200	818.942000	5.439560
18.827100	816.770000	5.234810
18.286500	818.061000	5.262270
19.159600	819.149000	5.356110
14.843500	810.008000	5.132740
16.716400	808.482000	5.047780
15.335200	808.698000	5.096960
17.588700	809.577000	5.041260
17.107800	810.892000	5.113050
15.724100	811.101000	5.147470
35.935400	864.138000	5.215270
34.575000	863.822000	5.284690
33.602900	864.829000	5.296180
33.998200	866.167000	5.217510
37.122400	868.146000	5.059500
36.330400	865.478000	5.164630
35.761200	867.822000	5.092850
35.360200	866.485000	5.159100
23.968500	796.269000	3.936170
25.271500	796.033000	3.547630
23.521600	797.605000	4.088680
24.353300	798.752000	4.018840
26.411200	796.866000	3.309040
25.737900	799.058000	3.806860
26.734900	798.187000	3.498580
19.088300	805.650000	4.794360
20.832400	807.847000	4.586770
19.463100	808.057000	4.804420
18.593400	806.960000	4.868230
20.962500	804.123000	4.574330
22.330000	803.895000	4.376760
23.157200	804.984000	4.139990
20.461800	805.433000	4.626550
22.665500	806.315000	4.169560
21.315200	806.534000	4.473860
