21	5
50	1958.19	10
22.229400	956.292000	5.165900
21.124100	955.364000	5.184110
23.625800	955.816000	5.163150
24.976700	956.392000	5.116800
22.443500	1024.770000	4.627570
36.095600	947.678000	5.021430
35.895600	946.289000	5.022940
37.000500	945.424000	5.018550
21.332900	953.989000	5.198180
19.773300	955.769000	5.175780
18.738600	954.811000	5.171670
13.739900	960.142000	5.095960
17.282600	976.716000	4.034540
18.604600	976.295000	3.833660
23.541300	1025.710000	4.652790
26.550200	1027.240000	4.636390
15.057600	933.201000	5.032350
14.581600	945.974000	5.011640
13.550300	945.026000	4.997560
37.401200	948.191000	5.014690
34.992300	948.545000	5.026170
36.798600	944.038000	5.018650
36.396700	941.273000	5.018980
32.472800	939.718000	5.028210
33.779600	940.233000	5.025340
36.194900	939.884000	5.020440
34.886900	939.369000	5.024660
34.682100	937.981000	5.029430
22.504500	949.879000	5.138340
22.104300	951.228000	5.171330
27.138000	945.461000	5.052860
27.403100	946.848000	5.073420
17.066500	956.584000	5.153800
17.394800	955.223000	5.159530
19.706600	950.713000	5.137380
20.741100	951.655000	5.166880
18.361700	951.126000	5.129720
18.015100	952.485000	5.146160
19.028400	953.439000	5.169000
20.353600	953.014000	5.181580
24.830700	953.633000	5.190550
24.485500	952.260000	5.187350
23.068100	952.209000	5.198600
23.686100	954.422000	5.201800
22.608600	953.548000	5.212320
18.471300	961.219000	5.017530
16.416000	959.311000	5.111700
19.436500	957.122000	5.159180
18.758200	959.848000	5.079980
18.093300	957.535000	5.149150
17.747900	958.892000	5.119440
28.987000	957.935000	4.948370
27.679500	957.432000	5.002530
30.985100	954.808000	5.010840
31.391100	957.573000	4.924940
30.086200	957.065000	4.962330
29.885200	955.681000	5.010650
30.795700	953.419000	5.038570
33.991200	958.599000	4.881660
31.594700	958.957000	4.870040
32.895400	959.470000	4.849770
16.268600	975.770000	4.205240
14.248600	973.890000	4.518570
15.575200	973.467000	4.385420
16.591000	974.411000	4.210220
21.099200	1025.150000	4.781340
20.774500	1026.490000	4.957490
21.799500	1027.440000	5.012240
24.109500	1028.040000	4.922260
23.155500	1027.050000	4.858110
24.927600	1025.260000	4.495780
26.270400	1025.860000	4.507630
35.679900	1014.020000	4.909850
36.785600	1013.160000	4.972740
16.382100	1023.990000	4.955370
14.745400	934.564000	4.997440
13.402200	934.975000	4.983560
13.083800	936.338000	4.971200
12.916000	947.754000	5.024700
12.589500	949.117000	5.038180
13.620400	950.063000	5.059440
14.256700	947.337000	5.027780
13.879100	943.665000	4.985470
14.513000	940.942000	4.967910
12.844500	942.722000	4.978420
13.170500	941.359000	4.970760
35.192500	949.932000	5.020430
33.980700	941.623000	5.024230
35.491500	943.524000	5.022190
35.288700	942.136000	5.021650
32.874700	942.491000	5.026730
31.565700	941.979000	5.027140
31.371100	940.587000	5.026730
23.618400	939.375000	4.986610
23.159500	940.716000	4.981940
23.282700	930.604000	5.507530
22.902400	931.963000	5.305510
37.305300	939.025000	5.018440
35.794600	937.123000	5.028130
37.103800	937.636000	5.021490
22.148900	934.742000	5.094820
19.530800	935.596000	5.025470
33.698700	931.076000	5.081070
35.008500	931.587000	5.056900
26.349500	947.750000	5.094730
23.903800	949.403000	5.128940
25.808700	944.940000	5.044890
28.038800	943.221000	5.027840
28.249800	944.601000	5.041060
29.148500	942.342000	5.025840
30.460600	942.849000	5.029340
28.695200	947.368000	5.071320
21.397100	948.953000	5.112410
20.044700	949.360000	5.111600
21.607700	947.578000	5.085980
20.625900	946.605000	5.058070
19.007100	948.404000	5.082900
19.299600	947.032000	5.057370
23.051500	937.041000	5.020010
22.650500	938.394000	4.992310
21.937600	936.119000	5.035940
20.581900	936.536000	5.010890
36.127700	930.736000	5.043890
37.436200	931.247000	5.030560
13.592500	1014.690000	4.828080
14.934200	1014.290000	4.785370
13.197500	1005.930000	4.987450
13.551400	1009.630000	4.909030
13.881300	1008.260000	4.935880
12.860400	1007.300000	4.964130
12.574900	1013.730000	4.866380
12.899600	1012.360000	4.872990
12.630200	1018.780000	4.878970
13.272400	1016.050000	4.835040
14.568700	1010.590000	4.868300
15.258300	1012.920000	4.796640
14.242800	1011.960000	4.845110
16.602400	1012.530000	4.764710
15.726800	956.999000	5.140590
15.395500	958.360000	5.126470
14.060000	958.779000	5.114370
13.035200	957.827000	5.110530
13.292300	951.426000	5.073100
14.765500	961.091000	5.074940
16.103400	960.676000	5.075640
17.129500	961.628000	5.024860
20.468700	958.066000	5.135600
22.791400	958.620000	5.091840
21.830000	957.639000	5.139970
20.081600	959.423000	5.086100
26.157400	955.552000	5.113010
27.470700	956.055000	5.060290
26.068400	954.165000	5.147190
28.577000	955.176000	5.054080
29.496400	952.906000	5.069370
27.120300	953.265000	5.122650
28.410000	953.783000	5.083390
31.890600	952.546000	5.032890
34.091000	950.801000	5.023920
33.792700	957.212000	4.920960
32.290300	955.317000	4.980390
32.489100	956.701000	4.942230
30.688300	961.217000	4.768380
28.121000	960.193000	4.843840
29.205400	959.315000	4.876280
30.502200	959.830000	4.837010
26.834200	959.672000	4.905070
26.571100	958.289000	4.992050
24.205900	958.671000	5.051720
25.247500	957.768000	5.058530
25.868400	961.955000	4.765440
24.689000	962.793000	4.712530
24.549000	960.040000	4.959560
25.783300	960.572000	4.876420
27.179200	962.458000	4.701320
29.788200	963.471000	4.637930
29.590300	962.088000	4.718060
28.284200	961.581000	4.753620
19.502000	962.174000	4.932370
15.886400	972.104000	4.425970
31.090800	963.982000	4.637500
33.500500	981.999000	4.947690
33.321700	980.611000	4.917560
32.379100	982.859000	4.936070
34.436800	979.747000	4.927350
37.221900	972.974000	4.858420
17.768700	991.796000	4.959780
14.031100	980.299000	4.539240
24.957000	964.160000	4.548490
18.937800	974.944000	3.858840
17.919000	973.994000	4.050710
24.986600	1023.880000	4.316010
26.134600	1023.110000	4.230930
17.721700	1023.600000	4.870800
20.361500	1022.810000	4.643380
18.737300	1024.560000	4.888560
20.078400	1024.180000	4.768000
19.698300	1020.490000	4.575230
18.682800	1019.520000	4.613690
18.027900	1022.240000	4.768900
19.361000	1021.840000	4.660560
17.018100	1021.270000	4.776160
17.341500	1019.910000	4.706270
19.003500	1018.160000	4.571060
20.637400	1016.400000	4.489960
20.348700	1017.780000	4.487100
21.041900	1020.100000	4.465990
21.369600	1018.750000	4.422570
22.720300	1018.370000	4.338800
34.381300	1013.490000	4.911650
34.072900	1019.880000	4.584020
33.275300	1014.350000	4.821840
31.975700	1013.820000	4.815410
32.969900	1020.730000	4.504090
13.711400	1024.780000	5.056970
13.071600	1027.510000	5.190130
18.418900	1025.920000	5.026870
19.434200	1026.880000	5.079440
35.368900	1020.400000	4.637330
36.588100	1011.780000	5.040670
14.837400	939.579000	4.963990
13.800100	938.639000	4.963980
14.125200	937.276000	4.967130
14.013300	932.269000	5.045020
14.320900	930.906000	5.104500
24.241500	941.588000	4.991510
25.537700	943.560000	5.022270
24.181500	942.984000	5.007450
26.721300	942.718000	5.018780
31.857200	935.562000	5.063980
32.262200	938.329000	5.034510
33.168400	936.077000	5.048380
33.372400	937.468000	5.036800
31.263000	931.411000	5.138810
31.661900	934.170000	5.087010
32.776900	933.314000	5.080130
32.575700	931.924000	5.098240
28.315600	936.790000	5.056490
29.429700	935.913000	5.075800
30.951500	937.816000	5.040590
30.744000	936.426000	5.058890
23.425300	934.282000	5.134020
23.879300	932.937000	5.223190
36.512900	933.489000	5.035470
36.709400	934.877000	5.030360
35.203500	932.978000	5.049440
35.593600	935.733000	5.034520
34.283600	935.220000	5.046440
34.086100	933.829000	5.057870
20.766800	930.162000	5.484980
21.014100	945.246000	5.032960
22.779800	943.466000	5.009040
22.378700	944.815000	5.032060
24.763600	945.845000	5.062990
23.344200	945.796000	5.058320
25.109400	947.218000	5.091910
23.963800	948.007000	5.106480
22.884500	947.135000	5.085700
29.783600	946.491000	5.055720
30.665600	944.237000	5.036040
29.562000	945.107000	5.044230
17.332100	950.176000	5.101130
17.661900	948.816000	5.079190
16.629600	947.868000	5.052970
15.288100	948.283000	5.049010
15.990600	950.594000	5.093050
14.960700	949.646000	5.067080
15.920900	945.553000	5.011940
16.948100	946.503000	5.031810
18.283300	946.080000	5.032530
20.243300	937.893000	4.985550
21.284400	938.831000	4.982040
17.615600	1013.500000	4.703770
19.636400	1015.430000	4.566350
20.928600	1009.990000	4.843780
19.286000	1011.750000	4.729720
20.636200	1011.360000	4.738770
19.976400	1014.070000	4.599990
18.961600	1013.110000	4.673020
14.699800	956.049000	5.131080
12.658500	954.155000	5.092900
13.361500	956.466000	5.115130
26.855800	951.876000	5.130050
26.440400	949.139000	5.111930
25.528800	951.355000	5.152440
25.257900	949.979000	5.132760
29.276400	951.524000	5.083080
28.864200	948.763000	5.082740
27.756200	949.640000	5.102550
27.966100	951.018000	5.106800
31.085000	947.006000	5.051270
33.686100	948.034000	5.035510
31.684800	951.161000	5.047640
30.377600	950.652000	5.068020
30.174600	949.268000	5.070140
31.276800	948.394000	5.055910
32.785300	950.290000	5.039190
32.584200	948.904000	5.044230
36.788800	961.011000	4.856480
35.292900	959.112000	4.876220
35.487100	960.498000	4.844260
19.165800	963.523000	4.843170
20.850400	961.767000	4.923540
22.331600	959.958000	5.028930
21.057500	960.398000	5.019150
23.405600	960.829000	4.938660
23.343500	962.217000	4.811740
21.951100	962.693000	4.805060
14.442000	962.452000	5.040140
12.852700	969.275000	4.828460
14.875200	971.158000	4.585840
16.536700	969.380000	4.546790
14.507500	967.493000	4.818290
14.185300	968.854000	4.766220
15.204300	969.799000	4.636140
33.487900	963.625000	4.715380
34.584000	962.754000	4.768790
31.991400	961.728000	4.754690
32.186600	963.112000	4.700510
33.088100	960.854000	4.801130
34.390100	961.368000	4.803160
36.982000	962.398000	4.836680
35.884900	963.269000	4.792450
36.076700	964.655000	4.775910
37.376700	965.168000	4.815510
33.681600	965.010000	4.683270
34.980800	965.527000	4.723200
35.168700	966.913000	4.715020
33.171500	988.365000	4.967890
31.063200	982.365000	4.890000
35.746300	980.246000	4.962570
36.859100	979.383000	4.967650
32.788600	976.461000	4.745320
32.959000	977.850000	4.813720
34.262000	978.357000	4.885910
13.004200	979.353000	4.608240
16.719600	990.858000	4.934110
19.787100	993.648000	4.995700
17.438600	993.170000	4.993070
18.471000	994.118000	5.014210
20.996300	988.116000	4.841360
19.984500	987.174000	4.783160
13.152300	984.392000	4.762240
14.488000	983.967000	4.686770
14.781700	982.600000	4.593120
13.740400	981.664000	4.618340
15.351900	979.870000	4.384420
17.950500	979.019000	3.950290
16.948500	978.071000	4.091180
15.641000	978.506000	4.296490
20.027000	980.908000	3.805890
29.283400	968.495000	4.353470
28.377600	970.745000	4.213830
29.473600	969.880000	4.327070
27.385400	963.831000	4.586410
26.278200	964.683000	4.497300
28.690800	964.338000	4.564210
28.905800	965.719000	4.477020
20.198400	979.561000	3.502490
21.445600	979.126000	3.202840
19.238000	978.588000	3.669020
19.619100	977.231000	3.626610
20.967800	976.804000	3.458800
21.912600	977.787000	3.246010
26.052800	981.697000	4.444910
30.389500	976.816000	4.574890
31.492400	975.948000	4.627420
31.322700	974.560000	4.550140
25.256800	974.744000	3.768880
24.082900	975.576000	3.640170
20.274800	974.532000	3.712780
22.817600	973.589000	3.505970
21.367400	975.461000	3.572950
22.751500	974.981000	3.556590
21.744500	972.711000	3.588930
20.479600	973.158000	3.730260
28.613900	982.731000	4.790120
29.934000	983.221000	4.870760
22.519100	980.002000	3.303100
24.808400	981.163000	4.112270
26.539000	985.829000	4.815350
27.667700	984.972000	4.829360
26.135300	983.090000	4.626120
27.466600	983.585000	4.763840
32.967600	986.979000	4.963550
32.569500	984.245000	4.952760
34.084900	986.123000	4.974470
33.886200	984.737000	4.972010
28.115300	987.723000	4.894320
26.806200	987.225000	4.863450
28.302900	989.117000	4.909340
27.195000	990.008000	4.902620
16.326600	1018.950000	4.735520
14.289200	1017.020000	4.801250
13.970200	1018.380000	4.828120
14.986200	1019.340000	4.806540
25.280000	1017.460000	4.236390
26.431300	1016.690000	4.289230
22.931400	1016.990000	4.335100
24.210900	1016.570000	4.280340
21.967100	1016.000000	4.431220
22.067100	1021.060000	4.417040
21.684100	1022.410000	4.504760
22.647000	1023.410000	4.472270
23.918400	1022.990000	4.313910
23.820100	1019.310000	4.290890
25.215500	1018.860000	4.250840
24.382300	1021.660000	4.245700
23.429500	1020.660000	4.308310
26.562400	1019.460000	4.254390
26.840200	1020.840000	4.225270
25.796000	1021.730000	4.200270
31.772500	1012.440000	4.928560
34.181900	1012.110000	5.003270
35.094500	1009.880000	5.157670
35.289000	1011.260000	5.068680
32.881700	1011.590000	5.026600
33.870900	1018.490000	4.620530
33.482200	1015.730000	4.740680
30.869200	1014.670000	4.700000
36.471700	1019.550000	4.713710
14.666600	1020.700000	4.858210
15.680500	1021.670000	4.856190
15.366900	1023.030000	4.933380
14.028000	1023.420000	4.986660
16.756800	1027.660000	5.233880
14.408300	1027.100000	5.188720
14.726400	1025.740000	5.103940
16.065100	1025.350000	5.058010
17.079500	1026.310000	5.109230
36.911300	1005.400000	5.301310
33.796900	1009.360000	5.208340
31.399300	1009.690000	5.192290
32.693000	1010.210000	5.145330
30.791600	1005.570000	5.578590
29.671500	1006.430000	5.540780
29.878700	1007.790000	5.389730
31.182600	1008.310000	5.326740
18.182900	936.015000	5.000860
17.135600	935.081000	5.010130
15.791000	935.498000	4.989810
15.469200	936.859000	4.972580
12.672400	932.676000	5.016460
35.596000	952.699000	4.996420
34.292100	952.188000	5.010620
33.193600	953.059000	5.010540
33.389300	954.445000	4.986720
26.629400	941.327000	5.009960
25.387700	940.795000	4.996900
25.040000	939.420000	4.996320
26.085200	938.512000	5.014770
28.817500	931.736000	5.217130
29.256400	934.515000	5.116910
30.135800	932.257000	5.156820
30.356500	933.647000	5.119680
28.613100	930.348000	5.284150
26.084900	930.657000	5.422460
26.996000	936.281000	5.069340
24.513700	935.149000	5.100930
24.454800	936.549000	5.045780
25.812600	937.129000	5.038780
15.660000	930.501000	5.171340
19.824700	934.223000	5.080460
21.152300	933.781000	5.129710
21.529800	932.418000	5.231860
20.463300	931.509000	5.285440
21.670300	942.540000	4.992110
19.569600	940.624000	4.973860
21.882100	941.163000	4.981030
20.896500	940.192000	4.976600
18.631000	944.721000	5.011550
19.275000	941.997000	4.980700
19.977200	944.304000	5.010870
20.316500	942.949000	4.992800
16.892100	941.466000	4.972140
15.549100	941.885000	4.973170
17.928600	942.412000	4.980970
17.598000	943.773000	4.994570
15.221200	943.246000	4.983470
16.255000	944.192000	4.995540
15.913600	1010.190000	4.854250
18.273000	1010.770000	4.794090
16.926400	1011.160000	4.801330
14.545300	1005.520000	4.995460
25.535600	994.547000	4.897430
15.025600	954.686000	5.129560
16.365400	954.271000	5.143590
14.320200	952.374000	5.097560
13.997200	953.736000	5.107920
16.681300	952.906000	5.134610
15.657600	951.954000	5.109250
33.487700	946.646000	5.035150
34.589700	945.776000	5.028300
34.385900	944.390000	5.026680
32.182700	946.133000	5.040700
33.078300	943.877000	5.029430
31.974600	944.746000	5.035440
21.550400	964.033000	4.671670
20.192800	964.461000	4.705160
13.547600	971.583000	4.681670
12.529600	970.634000	4.794470
13.230400	972.944000	4.653380
15.465700	963.404000	4.984970
16.803200	962.987000	4.967030
17.825700	963.937000	4.872800
15.136200	964.763000	4.932160
13.485700	966.545000	4.912040
13.803400	965.182000	4.957320
16.862400	968.023000	4.622730
15.842100	967.076000	4.763330
16.152400	965.713000	4.834920
17.481300	965.292000	4.793170
30.379800	967.624000	4.452080
30.199500	966.238000	4.500110
31.290000	965.366000	4.582250
32.587700	965.881000	4.617090
30.895800	980.975000	4.838700
32.013400	980.109000	4.857410
31.850700	978.717000	4.791780
30.554600	978.204000	4.676000
33.893100	975.592000	4.776360
36.120100	973.845000	4.832790
15.377400	991.300000	4.947640
20.796800	994.608000	4.994650
24.947800	991.782000	4.877000
18.379900	989.031000	4.870380
17.038300	989.485000	4.890260
15.983100	988.555000	4.861940
18.665500	987.650000	4.807510
25.185000	985.330000	4.744240
24.930500	983.934000	4.612020
16.110900	982.175000	4.467280
16.381700	980.812000	4.321810
17.693900	980.385000	4.108950
17.167900	983.096000	4.482370
18.499300	982.671000	4.339580
18.730400	981.325000	4.083700
34.641900	971.946000	4.716500
34.820000	973.332000	4.758040
32.422500	973.688000	4.611950
33.718900	974.203000	4.718940
25.489600	966.956000	4.245580
27.981800	967.980000	4.297010
26.539200	966.063000	4.367060
27.823400	966.590000	4.375720
27.079300	970.230000	4.117200
26.878800	968.854000	4.182770
25.571000	968.341000	4.154110
24.342300	976.957000	3.615130
23.329200	977.852000	3.342330
23.664700	979.230000	3.379400
24.813000	979.786000	3.829520
29.101300	976.299000	4.398900
26.545200	975.267000	3.974420
30.031300	974.043000	4.401990
28.581800	972.130000	4.213190
29.865800	972.653000	4.353590
27.501200	972.999000	4.077800
27.646200	974.393000	4.112250
28.932900	974.912000	4.304290
17.552600	970.324000	4.370680
18.887200	969.907000	4.265260
19.906600	970.839000	4.049180
17.208200	971.677000	4.301320
18.206300	972.623000	4.100290
19.517900	972.192000	3.952720
29.216900	986.851000	4.906010
28.997200	985.463000	4.884610
30.534300	987.345000	4.931950
30.125400	984.609000	4.903880
31.446400	985.099000	4.938110
31.650400	986.487000	4.946420
25.757400	988.146000	4.875410
25.865700	989.538000	4.895030
23.318300	989.867000	4.900210
24.684200	990.404000	4.894690
26.299500	992.246000	4.885220
27.413200	991.383000	4.902360
26.574600	993.627000	4.900520
27.884500	994.101000	4.958720
28.974100	993.229000	4.962450
28.739700	991.851000	4.929180
15.630700	1016.620000	4.743590
15.947600	1015.250000	4.735710
17.288900	1014.860000	4.684330
18.298100	1015.830000	4.622320
17.988100	1017.190000	4.627020
16.645600	1017.590000	4.699590
32.573300	1017.970000	4.577440
32.382100	1016.580000	4.640470
31.091200	1016.050000	4.609850
27.441900	1008.090000	5.327590
28.760800	1008.630000	5.287500
22.262000	1009.600000	4.910870
26.093300	1015.320000	4.384810
24.677500	1015.240000	4.374570
30.792400	1022.440000	4.379430
28.158100	1021.380000	4.264130
27.448400	1025.040000	4.403210
27.364400	1023.660000	4.291870
28.423000	1022.770000	4.288040
29.702800	1023.310000	4.347940
33.178900	1022.120000	4.494080
32.081000	1022.980000	4.438610
36.271800	1018.160000	4.745740
35.880800	1015.400000	4.844430
34.777700	1016.250000	4.763510
34.974900	1017.640000	4.708210
37.177800	1015.920000	4.860770
37.375600	1017.310000	4.818480
13.327900	1021.100000	4.912830
13.011900	1022.460000	4.965460
27.864000	1027.780000	4.628560
35.556800	969.686000	4.734930
37.040000	971.587000	4.827690
35.740300	971.074000	4.760440
36.468100	967.428000	4.770190
36.654400	968.815000	4.781120
36.520200	1002.640000	5.351000
37.498400	1009.540000	5.138320
37.108000	1006.780000	5.254150
36.199900	1009.020000	5.188400
36.001700	1007.640000	5.260970
32.095100	1006.080000	5.489100
32.293500	1007.460000	5.381640
34.702200	1007.120000	5.329950
33.594300	1007.980000	5.311480
33.310200	997.477000	5.293420
34.412600	996.615000	5.223660
18.548400	939.677000	4.969870
17.211800	940.102000	4.967180
18.895600	938.316000	4.975310
17.855600	937.376000	4.978580
16.178700	939.160000	4.964870
16.510600	937.797000	4.969590
37.096600	954.600000	4.969530
35.793100	954.087000	4.978150
34.891000	956.343000	4.940150
34.693400	954.956000	4.968360
28.529900	938.173000	5.033580
27.417000	939.034000	5.019640
30.068300	940.070000	5.026230
29.843800	938.684000	5.032230
28.977800	940.946000	5.022360
27.684200	940.425000	5.016350
27.691900	932.588000	5.221890
26.351600	932.053000	5.289180
25.305700	932.972000	5.229560
27.961000	933.984000	5.155970
26.902500	934.887000	5.124980
25.659300	934.350000	5.151240
16.398900	932.788000	5.070400
16.709200	931.429000	5.148240
17.447000	933.716000	5.054870
18.050600	931.019000	5.229980
18.786100	933.293000	5.101810
19.114100	931.934000	5.195610
15.563800	1006.490000	4.974720
15.226300	1007.850000	4.935790
16.238300	1008.830000	4.897670
16.239000	1003.740000	5.044970
14.888700	1004.160000	5.023030
23.145100	996.300000	5.009680
30.626900	1004.190000	5.674580
31.721100	1003.330000	5.626450
27.169700	1006.730000	5.517770
28.361200	1005.920000	5.636110
25.288500	1002.570000	5.903800
23.916300	965.055000	4.434680
22.504500	965.006000	4.489310
24.256700	966.418000	4.262260
12.781600	964.232000	5.012550
13.105700	962.871000	5.044330
19.804800	965.815000	4.593620
18.485600	966.241000	4.650860
18.199800	967.610000	4.550170
19.223200	968.560000	4.372650
34.072600	967.784000	4.655480
32.774000	967.269000	4.593620
34.258500	969.171000	4.662180
31.678600	968.139000	4.515890
34.486900	988.860000	4.982290
35.194300	976.101000	4.853740
36.677300	977.994000	4.942700
35.371200	977.491000	4.898430
36.299400	975.233000	4.872660
12.603800	975.678000	4.639820
14.947000	976.197000	4.375950
13.929300	975.251000	4.513410
14.626000	977.558000	4.412370
13.306600	977.989000	4.561490
12.848000	985.759000	4.819470
13.896400	986.693000	4.824250
12.665900	992.164000	4.970850
23.144000	994.911000	4.912250
22.047500	994.079000	4.930340
24.273400	994.081000	4.863410
23.907800	992.710000	4.867470
22.483700	992.728000	4.902460
21.913800	990.406000	4.910930
21.506400	991.766000	4.929580
20.792400	989.497000	4.890940
19.442400	989.963000	4.905100
19.107200	991.330000	4.945520
20.156200	992.262000	4.961430
13.714300	993.102000	4.985240
13.403800	994.477000	5.005120
16.103300	993.617000	4.999070
15.058800	992.673000	4.978210
16.287300	987.182000	4.801870
15.234100	986.258000	4.777080
15.541300	984.891000	4.697840
17.619700	986.728000	4.762350
17.945700	985.365000	4.667860
16.877800	984.457000	4.622460
24.140300	986.264000	4.786100
22.709200	986.266000	4.765740
24.502000	987.642000	4.856010
22.264500	987.619000	4.836260
23.364000	988.463000	4.878440
21.724800	985.310000	4.656760
19.596300	983.554000	4.424000
19.288800	984.905000	4.605210
20.358700	985.804000	4.689290
30.957200	971.783000	4.446350
32.249200	972.300000	4.562450
33.345400	971.429000	4.626060
33.162000	970.042000	4.599090
30.769800	970.395000	4.425720
31.865300	969.525000	4.511220
25.975200	971.078000	3.968400
26.230300	972.465000	3.915110
23.964800	972.805000	3.577200
25.187000	973.356000	3.728380
24.392500	969.175000	4.055930
23.623400	971.437000	3.710470
24.658400	970.546000	3.905060
22.209100	971.380000	3.724900
21.261400	970.408000	3.959520
29.451100	979.075000	4.635070
29.591500	980.468000	4.735870
28.470700	981.337000	4.698240
27.179800	980.822000	4.513360
28.001700	977.166000	4.307680
28.172600	978.553000	4.446530
25.625900	977.501000	3.894930
26.724900	976.647000	4.061100
25.848400	978.889000	4.034070
27.084300	979.426000	4.355830
30.283100	993.719000	5.018590
31.381800	992.851000	5.010020
29.627400	989.599000	4.928570
29.844100	990.983000	4.940420
30.738600	988.733000	4.939760
31.162200	991.471000	4.970980
32.269600	990.607000	4.974280
32.057600	989.223000	4.959170
29.020300	1010.010000	5.128880
30.469200	1011.920000	4.944310
30.303500	1010.540000	5.092000
27.957300	1010.880000	4.989110
23.226100	1010.600000	4.834450
25.510500	1012.460000	4.706530
24.813000	1003.890000	5.857390
25.814200	1006.140000	5.584140
25.882700	1004.770000	5.866620
21.624700	1007.290000	5.094030
22.649300	1008.250000	5.065120
24.018000	1007.880000	5.190450
24.409300	1006.550000	5.395320
27.137600	1014.430000	4.530570
26.859600	1013.070000	4.682180
29.567300	1014.140000	4.683870
28.455500	1014.980000	4.548430
29.353500	1012.770000	4.814780
28.044000	1012.250000	4.825250
29.268500	1020.530000	4.320670
31.467400	1018.820000	4.482310
31.672900	1020.200000	4.448220
30.568800	1021.060000	4.374920
35.061800	1026.810000	4.602130
29.866700	1024.700000	4.401250
28.755300	1025.560000	4.435940
28.970500	1026.940000	4.525010
33.015900	1003.840000	5.540210
33.204700	1005.230000	5.485310
34.118000	1002.980000	5.484870
34.505200	1005.740000	5.402840
35.416800	1003.500000	5.409450
35.611800	1004.880000	5.376480
33.510000	998.857000	5.380190
33.913600	1001.600000	5.482580
34.208000	995.234000	5.149180
32.691500	993.351000	5.050770
32.901000	994.731000	5.118540
37.293300	955.986000	4.950580
36.390600	958.240000	4.905570
36.194000	956.854000	4.931690
36.497600	950.445000	5.010290
36.696800	951.831000	4.999850
13.167300	1000.880000	5.039730
14.206300	1001.830000	5.043830
13.861300	1003.200000	5.028960
12.510200	1003.610000	5.018180
20.640200	996.020000	5.045350
20.069000	998.792000	5.145870
21.483200	998.375000	5.172600
21.801400	996.938000	5.076090
22.589800	1003.210000	5.492620
21.259700	1003.570000	5.302500
20.953600	1004.940000	5.209760
23.532000	1004.240000	5.599870
21.956900	1005.940000	5.230180
23.307500	1005.600000	5.408390
17.253700	1004.720000	5.042400
18.604400	1004.320000	5.092670
16.911600	1006.090000	4.995810
19.602800	1005.320000	5.103150
29.981200	1000.060000	5.583180
30.198400	1001.430000	5.685340
31.095300	999.211000	5.475390
32.404000	999.713000	5.472780
31.504500	1001.950000	5.629840
32.610300	1001.090000	5.537880
29.091900	1002.280000	5.794840
27.775200	1001.760000	5.838190
26.713400	1002.630000	5.955170
29.343300	1003.660000	5.784900
28.276700	1004.550000	5.818900
27.042000	1004.010000	5.952790
24.353300	1001.580000	5.718410
22.482600	999.429000	5.305910
22.986200	1001.860000	5.545800
22.040500	1000.800000	5.371290
28.664300	999.566000	5.550410
27.522600	1000.400000	5.667850
22.042200	966.333000	4.349880
20.773100	966.780000	4.410830
20.567100	968.151000	4.301470
23.113000	967.203000	4.209800
23.050900	968.593000	4.114910
21.662700	969.073000	4.124250
36.913800	988.502000	4.995610
36.515500	985.763000	4.991150
35.399700	986.618000	4.984420
35.601000	988.005000	4.986940
37.242900	982.132000	4.993220
37.434700	983.519000	4.996510
35.931000	981.635000	4.979840
36.318900	984.376000	4.991210
34.814000	982.494000	4.973430
35.005000	983.881000	4.981450
12.982400	990.793000	4.945130
13.589700	988.062000	4.873570
14.641400	988.994000	4.888530
14.327500	990.364000	4.928040
14.865200	999.100000	5.055160
13.506600	999.511000	5.043660
12.785200	997.200000	5.029240
17.620700	998.260000	5.083780
18.219400	995.514000	5.041850
19.287300	996.468000	5.064320
18.992800	997.849000	5.097760
17.274600	999.632000	5.090910
15.912200	1000.050000	5.069570
16.589100	1002.380000	5.070420
15.560900	1001.410000	5.061310
21.128500	981.780000	3.920830
20.949300	983.107000	4.293800
22.421700	981.306000	3.726780
23.615400	981.960000	4.079620
23.558500	983.366000	4.416630
22.114100	983.947000	4.471270
32.004700	996.973000	5.267850
31.800100	995.597000	5.160800
30.903400	997.835000	5.345660
30.493400	995.099000	5.101510
24.508300	1010.190000	4.923660
26.391600	1008.960000	5.166320
24.976000	1008.870000	5.110600
26.726500	1010.320000	5.007970
25.575200	1011.080000	4.863400
23.721000	1014.250000	4.490000
24.112200	1012.910000	4.625170
21.325800	1013.690000	4.578200
22.352900	1014.650000	4.491820
21.656000	1012.340000	4.663220
23.011300	1011.970000	4.698540
27.745200	1018.630000	4.305410
29.053300	1019.160000	4.347290
30.166300	1018.300000	4.435780
30.000100	1016.910000	4.496620
27.660400	1017.240000	4.338060
28.719600	1016.370000	4.455080
34.668900	1024.030000	4.560040
35.571900	1021.790000	4.621640
34.471400	1022.650000	4.554690
36.865900	1022.320000	4.681390
30.268700	1027.470000	4.543480
37.423500	1000.400000	5.276980
36.319800	1001.260000	5.347610
35.017800	1000.750000	5.402020
34.815300	999.364000	5.359260
20.273800	1007.660000	5.000560
19.268400	1006.680000	5.022780
17.919400	1007.070000	4.972760
17.583100	1008.430000	4.909080
19.929900	1009.020000	4.898590
18.587800	1009.410000	4.862900
28.499600	998.195000	5.366830
29.600300	997.337000	5.283410
29.394900	995.965000	5.137910
28.087300	995.477000	5.047710
35.311800	994.373000	5.107100
15.197600	997.729000	5.050630
15.809100	994.996000	5.022060
14.456700	995.415000	5.021320
14.142100	996.789000	5.034480
16.865700	995.939000	5.042580
16.559100	997.318000	5.059630
17.942400	1001.960000	5.107780
20.293700	1002.550000	5.227990
18.945100	1002.950000	5.138030
18.313400	1000.590000	5.121260
20.676600	1001.180000	5.253890
19.682800	1000.170000	5.169560
31.166500	1025.220000	4.446880
31.370900	1026.610000	4.501510
32.271100	1024.360000	4.460300
33.566600	1024.890000	4.516780
33.767800	1026.280000	4.546850
32.666300	1027.140000	4.541340
36.162700	1025.950000	4.638000
37.456300	1026.480000	4.700980
35.963100	1024.560000	4.622640
37.064600	1023.700000	4.680000
37.223000	999.016000	5.250590
35.718000	997.122000	5.225270
35.919300	998.505000	5.281140
27.212800	997.694000	5.261270
24.492800	996.766000	5.057160
25.666400	995.918000	4.993720
26.993100	996.349000	5.082280
35.104800	992.990000	5.057460
34.693800	990.245000	4.995820
33.583700	991.105000	4.998530
33.795500	992.487000	5.033470
37.116700	989.889000	5.005510
36.005600	990.746000	5.011180
36.212100	992.131000	5.037490
36.618600	994.880000	5.117470
36.821900	996.262000	5.165840
23.892000	999.225000	5.369870
24.742000	998.099000	5.236720
24.821000	1000.320000	5.588030
26.204500	999.887000	5.570280
26.102400	998.493000	5.345170
