47	13
50	1229.84	10
21.127500	631.766000	4.881240
21.913400	637.873000	4.595550
36.290600	624.064000	4.972470
34.928400	623.751000	4.939200
27.229200	635.591000	3.884390
25.872400	635.319000	3.819340
25.309900	634.088000	4.169520
26.170600	632.978000	4.335940
23.215600	637.722000	4.143410
23.689200	636.389000	3.967640
25.032900	636.391000	3.636480
27.664700	636.924000	3.835590
16.990800	636.714000	5.082130
14.848700	635.500000	5.121270
15.577800	636.705000	5.090690
30.429600	630.159000	4.773640
30.158300	641.256000	4.468630
19.796700	636.687000	4.969310
21.190500	636.645000	4.792580
21.872600	632.947000	4.865020
23.925600	634.076000	4.407760
23.291900	632.867000	4.669140
23.124400	635.232000	4.382800
21.798800	635.355000	4.750610
21.130300	634.156000	4.942630
36.401200	607.938000	4.941610
17.477700	601.600000	5.607270
16.822400	602.804000	5.404760
25.870000	603.122000	5.533400
33.959300	624.762000	4.945220
35.141100	628.764000	4.954340
34.349400	626.104000	4.968350
31.454000	620.443000	4.530740
34.539000	622.411000	4.879850
33.181100	622.096000	4.799930
32.802500	620.759000	4.684290
35.496800	621.391000	4.882080
31.215000	611.757000	4.861350
32.588900	612.043000	4.834350
37.126500	614.296000	4.887670
23.251300	615.866000	5.297120
26.055800	615.781000	4.775190
33.022100	613.370000	4.786750
32.074500	614.395000	4.714170
32.524000	615.716000	4.653820
34.388600	613.677000	4.812670
31.093000	619.103000	4.394150
32.017800	618.073000	4.512010
31.595300	616.743000	4.522520
17.663300	620.913000	5.121800
16.926100	622.110000	5.127220
19.779600	622.118000	4.997240
19.078400	620.902000	5.082100
17.545800	628.189000	5.082940
21.802200	630.559000	4.665710
23.903800	617.070000	5.028510
25.243200	616.953000	4.697060
25.797800	618.142000	4.308630
25.306300	619.480000	4.425020
21.845200	615.972000	5.384200
16.843900	612.458000	5.313480
15.520300	622.129000	5.146340
14.817200	620.919000	5.139290
13.411500	620.933000	5.125580
12.694800	622.138000	5.127390
28.432100	639.600000	4.179680
28.807400	640.921000	4.380840
27.815300	641.890000	4.535710
13.440300	635.492000	5.108610
18.968300	630.623000	5.038780
19.721000	631.806000	5.025440
12.691000	593.110000	5.151000
19.727700	590.706000	5.331440
31.115200	640.235000	4.456920
37.252000	623.046000	4.971020
36.856800	621.705000	4.936480
35.554200	630.102000	4.933180
33.210100	630.796000	4.851250
34.583100	631.113000	4.883440
36.379800	632.769000	4.890560
34.052500	633.465000	4.781980
35.011600	632.448000	4.856000
28.096700	634.542000	4.163300
27.576900	633.236000	4.333980
28.511900	632.202000	4.522130
36.685900	625.404000	4.991700
37.484800	628.067000	4.989890
36.116400	627.756000	4.980890
35.715600	626.417000	4.985250
37.343800	631.753000	4.933670
36.924600	630.416000	4.950720
28.227800	643.222000	4.691080
16.788400	600.382000	5.580970
19.074200	591.950000	5.385560
17.657600	591.931000	5.311020
15.526800	593.120000	5.272660
16.936400	593.132000	5.349080
17.641100	594.340000	5.472680
35.444700	608.960000	4.920130
33.542300	611.016000	4.866790
17.570100	603.985000	5.412330
18.975700	603.978000	5.573770
36.597200	616.658000	4.861080
36.180500	615.323000	4.849820
33.880700	616.033000	4.726750
34.820900	615.006000	4.797860
33.363600	618.394000	4.652840
34.300000	617.366000	4.732340
35.654400	617.686000	4.817310
36.054000	619.025000	4.851310
35.106300	620.051000	4.820420
33.751900	619.735000	4.716880
31.413400	629.148000	4.857060
32.790000	629.459000	4.887090
33.769500	628.453000	4.936970
33.370900	627.110000	4.952010
30.257700	612.787000	4.837140
30.702400	614.103000	4.716060
13.394500	623.349000	5.149150
14.796300	623.332000	5.157420
18.930800	628.185000	4.924070
19.618600	629.405000	4.883450
20.983100	629.409000	4.627140
21.547100	628.192000	4.313860
20.933200	626.956000	4.463920
19.586000	626.956000	4.780310
22.859300	628.216000	3.986630
23.283700	618.382000	4.993520
23.979400	619.625000	4.770820
26.421000	620.350000	4.254750
29.760000	618.783000	4.191020
28.847800	619.826000	4.115820
27.534000	619.518000	3.980860
27.143300	618.189000	4.013310
21.058400	624.519000	4.667790
21.642300	625.749000	4.396960
21.176100	617.221000	5.267470
19.806800	619.698000	5.112780
21.883800	618.439000	5.126140
21.230600	619.695000	5.063290
19.079000	618.489000	5.183970
19.764200	617.260000	5.262860
24.346100	638.559000	3.944010
27.084200	639.292000	4.034260
25.442600	637.716000	3.605770
26.767400	637.986000	3.740990
36.928300	642.861000	4.881060
36.532400	641.517000	4.839760
27.267700	644.190000	4.937370
17.724500	637.924000	5.034040
19.145100	637.936000	4.983440
12.696500	631.859000	5.157810
13.410500	633.069000	5.155570
12.717000	634.286000	5.122540
17.575000	630.626000	5.140370
16.870800	629.414000	5.151670
19.739900	634.221000	5.066420
19.023800	633.023000	5.105530
17.672500	635.484000	5.110130
19.080100	635.469000	5.065230
14.813600	591.916000	5.200860
13.407700	591.907000	5.155800
12.693100	590.703000	5.114770
21.067900	588.188000	5.149590
18.922700	584.670000	4.756330
19.669000	585.853000	4.826010
27.171300	589.626000	5.760560
30.981100	594.278000	5.051660
31.767500	596.956000	5.005610
29.812800	599.002000	5.120890
32.340200	594.592000	4.976090
33.290800	593.561000	4.945170
34.653600	593.876000	4.921380
32.729400	595.935000	4.967050
26.318600	595.614000	5.454720
26.863400	602.089000	5.414090
28.246900	602.389000	5.288360
28.839300	600.018000	5.200490
29.225700	601.370000	5.202270
29.547000	606.397000	5.137940
28.675100	603.727000	5.258980
30.602200	601.671000	5.127250
35.727000	638.829000	4.770300
33.017000	638.190000	4.575940
37.412500	619.341000	4.911560
32.685200	633.139000	4.722020
32.240600	631.808000	4.767500
30.862800	631.492000	4.716320
29.900200	632.509000	4.583600
29.565700	643.597000	4.679090
30.537200	642.595000	4.598680
31.266600	645.284000	4.827890
29.900400	644.956000	4.800130
31.889800	642.926000	4.679310
32.253200	644.275000	4.782120
13.341600	599.152000	5.197820
14.732600	599.152000	5.321780
12.645700	600.364000	5.129660
15.410900	600.372000	5.372310
12.654600	597.937000	5.165170
14.795900	594.315000	5.269970
13.393900	594.318000	5.194560
13.363100	596.731000	5.212260
12.672800	595.518000	5.169020
24.832500	610.261000	6.374260
30.808200	610.420000	4.926330
29.441200	610.132000	5.027370
29.985800	607.732000	5.058140
29.064300	608.779000	5.110320
35.337900	612.651000	4.858080
34.911300	611.319000	4.874220
35.865400	610.296000	4.903640
37.232300	610.604000	4.919400
36.702700	612.963000	4.886840
19.712300	605.165000	5.589450
21.136600	605.134000	5.734380
21.769100	606.371000	5.906750
20.981800	607.548000	5.960860
18.960400	606.358000	5.523010
19.612300	607.572000	5.698980
24.194100	601.415000	5.850340
21.916200	603.913000	5.802780
24.455700	602.821000	5.710610
23.430700	603.933000	5.777290
26.333000	604.458000	5.510360
27.716100	604.755000	5.349130
28.184600	606.085000	5.290020
23.169600	606.412000	6.007800
23.740900	607.676000	6.237200
24.007600	605.272000	5.824470
25.410500	605.510000	5.683810
27.728800	608.468000	5.333050
27.274400	607.135000	5.431080
26.860700	609.533000	5.549380
25.614400	609.202000	6.027140
25.102400	607.899000	6.034080
25.931500	606.828000	5.709830
17.512800	611.235000	5.423410
18.894500	608.778000	5.641650
21.260900	593.194000	5.649370
19.811700	593.173000	5.528400
19.057200	594.362000	5.586480
29.042900	629.850000	4.722090
28.043800	630.873000	4.613080
19.534600	610.001000	5.823560
18.888200	611.229000	5.645720
15.487100	624.546000	5.160450
16.866600	626.966000	5.119910
19.017500	623.305000	5.002400
19.675400	624.526000	4.874450
17.616300	623.325000	5.093700
16.885500	624.526000	5.119950
18.945800	625.729000	4.919760
17.559700	625.745000	5.070090
24.890800	627.313000	4.030670
23.855300	624.700000	4.384400
23.547900	627.014000	3.906580
23.001700	625.782000	4.157930
30.490000	621.458000	4.548220
29.145400	621.142000	4.384220
29.756800	615.125000	4.601500
30.242900	616.425000	4.435080
29.341500	617.450000	4.222220
27.990400	617.142000	4.189050
27.452000	615.900000	4.531060
28.371300	614.863000	4.685330
23.285700	623.418000	4.601100
24.157800	622.257000	4.696400
23.408700	620.944000	4.813960
21.958000	620.930000	4.933960
21.198800	622.123000	4.892950
21.863400	623.352000	4.716930
16.930900	617.299000	5.189550
15.538700	619.715000	5.140370
16.949400	619.705000	5.146220
17.663900	618.496000	5.173710
19.023100	616.069000	5.319980
17.618400	616.080000	5.250860
17.551100	613.666000	5.339380
16.881400	614.887000	5.247840
14.819300	618.512000	5.132300
15.523700	617.302000	5.151370
13.338100	601.577000	5.140780
14.730300	601.584000	5.245940
15.434500	602.791000	5.256080
14.743700	603.998000	5.159750
17.519800	608.800000	5.414110
16.831600	610.019000	5.340220
32.851200	641.905000	4.669680
34.210300	642.225000	4.757150
32.468000	640.561000	4.580970
35.169100	641.200000	4.773260
34.774900	639.856000	4.723400
33.417200	639.533000	4.624010
34.593400	643.570000	4.826730
36.357100	645.223000	4.927740
35.960800	643.879000	4.879910
33.619700	644.587000	4.840310
25.989400	643.715000	5.171280
27.546100	645.585000	4.997830
19.895300	639.159000	4.931750
21.344600	639.170000	4.798180
19.847700	641.588000	5.021290
19.153500	640.362000	4.982040
14.813800	633.074000	5.174200
15.496600	631.850000	5.192410
16.896100	631.849000	5.177800
17.622800	633.048000	5.158710
15.538900	634.279000	5.155360
16.945200	634.278000	5.151510
26.556800	584.603000	5.046270
35.743300	589.140000	4.941410
36.695800	588.116000	4.957820
13.396800	589.496000	5.100020
14.772200	587.089000	5.027980
15.523200	590.709000	5.174390
16.931700	590.724000	5.207350
15.491600	588.292000	5.065560
14.800600	589.507000	5.114440
12.664300	585.870000	5.022150
12.679800	588.292000	5.067370
13.373100	587.079000	5.040910
15.455600	585.871000	4.973540
17.531400	584.663000	4.840690
16.850600	585.877000	4.927770
21.835800	591.886000	5.719570
23.168800	591.726000	6.048930
21.120100	590.661000	5.490050
21.729600	589.370000	5.441060
25.432300	591.733000	6.270550
25.933100	594.281000	5.642740
24.553800	593.907000	5.815060
24.303300	592.579000	6.106340
25.032100	590.401000	6.301930
25.839800	589.337000	5.990450
23.068100	589.232000	5.748250
23.657400	590.387000	6.155850
33.842400	591.187000	4.939230
32.897600	592.218000	4.963750
30.022800	595.300000	5.102170
30.406300	596.643000	5.064070
28.670100	594.986000	5.239220
29.432800	597.651000	5.123170
27.675100	595.971000	5.291350
28.077000	597.315000	5.220180
34.093500	596.245000	4.944510
35.050600	595.219000	4.926200
37.372100	594.505000	4.924990
36.415700	595.529000	4.927720
35.605400	592.848000	4.913930
36.969300	593.163000	4.917440
35.203800	591.506000	4.918940
36.154000	590.479000	4.924100
27.117100	598.326000	5.303960
27.474300	599.692000	5.302370
25.168000	600.371000	5.649000
26.511600	600.723000	5.438230
25.333900	596.603000	5.505880
25.781900	597.951000	5.459050
23.597800	598.550000	6.020420
24.868900	598.971000	5.681970
32.183100	635.492000	4.562080
31.738100	634.161000	4.597450
29.454900	634.861000	4.297210
30.374100	633.831000	4.500180
29.000000	637.233000	4.063840
29.905900	636.191000	4.248900
31.252800	636.521000	4.415320
31.664800	637.861000	4.440290
29.382000	638.574000	4.174010
30.728100	638.895000	4.349610
34.486700	634.799000	4.758530
33.540100	635.822000	4.664040
35.319100	637.488000	4.750910
33.960400	637.162000	4.664270
37.089100	639.150000	4.835770
37.491600	640.493000	4.860930
15.429400	597.941000	5.408470
14.757200	596.723000	5.319100
15.486200	595.527000	5.354210
16.883600	595.524000	5.485970
25.011500	611.642000	6.063860
25.482300	614.509000	5.160430
24.004400	614.613000	5.416240
23.742800	612.282000	6.180770
23.197400	613.503000	5.797960
28.875800	612.532000	4.950550
28.506100	611.191000	5.093310
27.168900	610.909000	5.377090
27.899200	613.576000	4.941520
26.492100	613.362000	5.205860
26.231700	611.995000	5.531130
34.076500	608.654000	4.920840
33.658200	607.317000	4.952450
33.123700	609.681000	4.899490
31.754200	609.382000	4.925970
31.347100	608.042000	4.976970
32.291200	607.008000	4.980960
20.874600	598.018000	6.351150
19.724200	595.584000	5.783620
17.447700	599.165000	5.761600
18.794400	599.179000	6.087520
16.809100	597.937000	5.608250
17.539800	596.741000	5.653780
18.922200	596.747000	5.866860
19.507600	597.975000	6.147230
22.936600	600.966000	6.221080
22.766200	599.557000	6.387850
21.428200	599.257000	6.577650
23.486100	594.839000	5.721240
22.011000	594.497000	5.739600
21.146500	595.657000	5.872110
21.718700	596.937000	6.085300
23.972100	596.203000	5.682210
23.081300	597.239000	5.944130
25.070900	628.721000	4.169230
26.348800	629.166000	4.456510
26.622500	630.566000	4.541520
25.592000	631.657000	4.499280
24.070900	631.654000	4.577690
23.229400	630.516000	4.480540
23.770400	629.289000	4.157400
20.875200	609.994000	6.175820
23.501700	610.028000	6.677430
22.832400	611.246000	6.560760
21.502800	611.234000	6.284440
22.932000	608.789000	6.495880
21.567900	608.773000	6.262480
12.684300	629.425000	5.171720
15.472700	629.417000	5.190930
13.386800	630.639000	5.180920
14.787600	630.639000	5.196460
12.684700	624.559000	5.150590
30.854500	622.785000	4.732110
32.598300	624.444000	4.905520
32.211100	623.106000	4.821370
28.088600	622.067000	4.527070
25.636600	622.610000	4.648100
26.697600	621.684000	4.485250
18.938300	613.663000	5.479960
19.579200	612.447000	5.676230
20.946000	612.444000	5.919460
19.693500	614.843000	5.450160
21.096400	614.802000	5.537580
21.764300	613.588000	5.765360
12.695300	617.314000	5.088270
12.702100	619.725000	5.104970
13.413100	618.519000	5.108110
15.483900	614.887000	5.172860
14.796600	616.103000	5.137240
13.394800	616.103000	5.098110
16.844100	607.588000	5.301560
15.461300	605.197000	5.183240
17.565200	606.386000	5.357690
16.860100	605.186000	5.298250
14.752700	606.402000	5.128340
15.451400	607.609000	5.178330
25.101500	644.656000	5.547860
22.112800	640.450000	4.854700
21.272500	641.630000	5.051760
14.871400	637.918000	5.059910
13.460300	640.327000	5.013360
34.912400	586.459000	5.008480
34.489100	585.125000	5.056360
36.820600	584.422000	5.039780
37.236000	585.759000	5.004720
36.277400	586.779000	4.987490
27.502900	587.267000	5.337270
28.019500	588.578000	5.444650
19.678100	588.253000	5.063780
18.968800	587.060000	4.941090
19.018900	589.493000	5.168030
17.614800	589.502000	5.137390
17.571100	587.076000	4.968570
16.893500	588.299000	5.054900
26.987100	593.340000	5.655820
26.714300	592.022000	5.942250
28.313100	593.651000	5.382480
27.590800	590.963000	5.745040
23.861600	588.078000	5.569830
25.530200	585.697000	5.109340
26.101400	587.006000	5.376590
25.258500	588.102000	5.676400
29.366800	588.897000	5.261140
30.286200	587.860000	5.135570
31.861100	605.674000	5.031010
30.491800	605.364000	5.101210
30.052000	604.031000	5.154810
31.019100	603.010000	5.110810
34.613300	606.294000	4.966780
35.981600	606.601000	4.958670
36.941300	605.582000	4.970860
34.488800	597.587000	4.958320
32.155300	598.300000	5.013210
33.522800	598.605000	4.987230
33.923000	599.947000	5.001010
32.950800	600.960000	5.033800
31.181300	599.313000	5.063980
31.578100	600.658000	5.072800
37.486400	603.228000	4.983900
36.522400	604.246000	4.982610
33.362500	602.299000	5.031010
32.393500	603.315000	5.054740
32.819100	604.651000	5.024770
34.189600	604.958000	4.993790
34.734500	602.603000	5.005460
35.152500	603.939000	4.993850
21.086900	602.761000	5.953890
21.637700	601.536000	6.285020
19.655700	602.778000	5.800110
18.840100	601.624000	5.873120
19.411500	600.420000	6.215160
20.733400	600.458000	6.510920
13.380500	625.775000	5.169920
15.469300	626.979000	5.173110
14.780800	625.760000	5.175240
12.680800	626.990000	5.167000
14.778300	628.200000	5.190140
13.377600	628.206000	5.182370
31.023100	627.800000	4.889560
32.003100	626.792000	4.929840
31.618400	625.444000	4.915840
25.222600	625.003000	4.465360
26.128300	623.972000	4.672030
25.739300	626.312000	4.361460
21.857100	642.899000	5.278610
23.235900	643.034000	5.410290
21.103100	644.088000	5.291840
23.768700	644.284000	5.662120
21.704100	645.354000	5.392830
23.035600	645.456000	5.625100
24.641300	639.857000	4.300510
23.605000	640.729000	4.741620
24.125500	642.027000	5.069430
26.039800	640.204000	4.278050
26.460300	641.496000	4.578410
25.501500	642.416000	4.964730
14.871500	640.331000	5.012310
15.579800	641.544000	4.993830
15.594900	639.126000	5.031750
16.991500	641.548000	4.995860
17.010500	639.136000	5.021570
17.731300	640.347000	4.999460
19.023300	645.245000	5.027140
19.723200	644.034000	5.118110
19.087400	642.786000	5.044710
17.679500	642.771000	5.000220
14.852100	642.746000	4.976890
12.737000	636.704000	5.075730
13.459800	637.911000	5.056370
12.745100	639.118000	5.031810
32.155200	585.827000	5.081020
33.120200	584.810000	5.095390
13.354600	584.655000	4.993100
14.751300	584.662000	4.960690
28.899800	591.274000	5.421010
29.801100	590.230000	5.243990
31.146400	590.554000	5.084580
31.540200	591.899000	5.043300
30.602600	592.934000	5.114940
29.258300	592.619000	5.300750
32.593200	587.158000	5.032520
31.646600	588.185000	5.050190
33.957200	587.481000	4.993580
34.381700	588.817000	4.957960
33.435900	589.845000	4.961220
32.078400	589.519000	5.018390
35.855900	597.892000	4.954320
36.817100	596.871000	4.942160
23.231900	586.896000	5.180410
21.811900	586.985000	5.036180
24.020500	585.698000	4.962340
23.210900	584.581000	4.594250
21.079200	585.820000	4.809650
21.771100	584.623000	4.596960
29.656500	627.467000	4.849640
28.684900	628.489000	4.749340
27.332200	628.133000	4.619640
27.026700	626.738000	4.621270
13.355100	606.412000	5.060320
12.654200	607.622000	5.037900
12.644800	602.789000	5.075890
13.348100	603.997000	5.082470
12.649500	605.205000	5.041270
15.452000	612.462000	5.197800
14.769800	613.682000	5.148770
14.754300	611.250000	5.155490
15.441900	610.033000	5.202250
13.353900	608.832000	5.069300
14.750300	608.820000	5.141170
16.952100	643.976000	4.972690
15.546100	643.966000	4.959000
14.824700	645.170000	4.933060
17.625600	645.208000	4.961250
13.420000	645.164000	4.941480
12.738600	641.531000	4.996690
13.443900	642.744000	4.978920
12.722100	643.948000	4.964690
29.820000	586.535000	5.147280
30.781800	585.515000	5.126550
30.353000	584.181000	5.172280
27.972800	584.903000	5.147230
28.436300	586.230000	5.199060
36.259500	599.232000	4.969450
37.072300	601.891000	4.985060
35.292900	600.249000	4.986670
35.702400	601.587000	4.992380
36.805100	634.104000	4.875100
35.849400	635.125000	4.817850
36.270000	636.463000	4.813020
29.294000	626.104000	4.865950
29.852600	623.760000	4.789620
30.261100	625.101000	4.877350
27.953500	625.723000	4.792470
28.488400	623.395000	4.718820
27.499300	624.377000	4.762680
12.679800	614.898000	5.076340
13.371700	613.683000	5.092350
12.658300	610.046000	5.052100
13.357700	611.258000	5.084860
12.666300	612.474000	5.066010
