13	4
50	1081.03	10
18.554400	565.694000	4.879370
13.563100	517.021000	5.015750
12.670700	514.775000	5.053880
15.330500	521.522000	4.892310
12.726900	522.556000	4.975440
17.263600	566.231000	4.961950
18.738600	564.301000	4.922900
26.604100	547.700000	5.076900
22.950600	541.797000	3.542990
23.528600	558.389000	5.194490
19.585400	526.362000	4.496080
19.327000	527.737000	4.468290
24.839900	526.802000	4.206980
26.796200	533.018000	4.321100
29.231300	534.192000	4.800110
27.914000	532.195000	4.526020
29.154600	532.794000	4.746790
25.607800	532.419000	3.933420
28.157800	536.382000	4.767520
28.075000	534.990000	4.695790
26.822600	534.408000	4.469320
26.980700	537.158000	4.656220
31.650900	533.981000	4.987450
30.496600	534.779000	4.928490
14.868800	516.505000	4.987400
15.616100	527.910000	4.842160
16.922000	527.396000	4.748720
18.019800	528.257000	4.627360
17.759300	529.636000	4.631870
12.988900	528.946000	4.953840
15.133400	522.909000	4.885610
13.829100	523.421000	4.937030
14.444200	519.270000	4.966420
13.345600	518.404000	5.005790
14.234200	520.654000	4.954760
12.932500	521.171000	4.984690
25.303900	547.116000	5.042730
24.083700	547.882000	5.198720
26.757300	549.085000	5.137500
24.449400	533.204000	3.806170
28.410200	539.143000	4.858820
27.141200	538.548000	4.676530
25.228400	542.986000	4.305820
25.262700	545.732000	4.844950
25.229300	541.606000	4.105640
24.089100	541.011000	3.676920
26.250100	540.750000	4.453780
26.018800	539.353000	4.449910
28.172500	551.090000	5.026930
28.024000	549.696000	5.043390
31.002200	557.906000	4.924450
29.723400	557.322000	4.933620
28.538600	558.102000	4.958630
28.624800	559.501000	4.942430
32.724300	564.065000	4.984430
19.244100	561.506000	5.040450
26.427900	515.460000	4.462450
18.460600	525.515000	4.620210
17.147500	526.015000	4.738660
16.037000	525.159000	4.819720
16.235100	523.774000	4.809560
22.672100	529.014000	3.627910
21.722600	528.089000	4.023320
20.393900	528.606000	4.213400
27.833700	530.794000	4.487020
28.941900	529.983000	4.687090
31.553200	532.585000	4.964370
30.292900	531.986000	4.862550
31.332300	529.788000	4.921260
30.190600	530.588000	4.839500
28.573300	540.534000	4.913210
27.461500	541.350000	4.763210
29.182000	548.911000	5.007300
30.597100	536.174000	4.967100
29.562500	538.352000	4.949710
29.434200	536.961000	4.904370
31.868900	536.761000	5.043640
33.550200	559.101000	4.943160
13.976800	514.262000	5.045440
15.083400	515.123000	5.002010
15.743000	518.747000	4.916390
15.972900	517.366000	4.925980
17.279300	516.848000	4.850100
14.086700	529.812000	4.919130
16.472800	530.162000	4.770610
15.385200	529.292000	4.855300
13.623600	524.805000	4.935610
13.207900	527.563000	4.945700
14.513200	527.049000	4.898830
14.729000	525.666000	4.889890
14.660300	567.286000	5.020430
16.162100	565.369000	5.036410
14.862000	565.899000	5.048840
17.030800	559.829000	5.135750
21.925900	550.028000	6.028760
22.309800	557.646000	5.366690
23.847500	515.590000	4.298230
25.209200	516.236000	4.306290
21.280500	515.306000	4.503240
19.945200	515.808000	4.632810
22.083700	517.523000	4.123470
22.443000	516.156000	4.325150
21.423300	513.912000	4.468890
23.481600	526.155000	4.166400
22.080500	526.719000	4.198150
20.919300	525.864000	4.350170
21.061000	524.471000	4.267270
23.896700	514.138000	4.248880
24.730100	538.763000	4.214140
23.727900	539.640000	3.835650
23.312900	531.198000	3.256510
23.263600	532.548000	3.515160
22.222400	530.348000	3.397680
24.072100	543.774000	4.221780
24.028600	545.127000	4.594330
22.896500	543.132000	3.875230
26.420000	543.573000	4.688140
27.541900	542.748000	4.834850
28.787800	543.348000	5.005170
26.447500	544.958000	4.859670
21.861100	540.940000	3.624740
22.308400	539.597000	3.805370
31.601600	548.723000	4.984160
30.446100	549.516000	4.965120
30.821400	555.123000	4.902140
28.349600	553.915000	5.015390
29.656700	555.921000	4.932760
28.394600	555.319000	4.997880
27.258900	557.517000	5.022790
27.226700	556.114000	5.083210
25.992600	555.496000	5.290690
24.807600	556.263000	5.392920
24.782300	557.667000	5.204440
26.047700	558.284000	5.054970
27.427000	560.269000	4.928310
27.588400	561.664000	4.874690
26.106000	559.689000	4.962130
26.678000	563.870000	4.672210
26.441800	562.467000	4.749890
27.917900	564.481000	4.812470
27.993100	565.889000	4.807360
28.876600	562.265000	4.912530
31.453000	563.470000	4.968780
30.302900	564.271000	4.948010
29.041300	563.664000	4.904740
27.116600	553.294000	5.189350
27.052900	551.892000	5.189040
24.830400	553.467000	5.819840
25.994700	554.099000	5.417720
20.337100	562.362000	4.876010
20.004900	563.742000	4.781150
22.040000	560.435000	4.977890
23.481900	559.845000	5.007740
22.657200	562.720000	4.447780
21.676400	561.809000	4.779110
24.872600	560.475000	4.894390
24.081500	562.742000	4.415610
25.125100	561.870000	4.692390
26.857700	566.719000	4.692890
35.267200	565.261000	5.004070
35.451700	535.767000	5.098830
34.073900	533.777000	5.067730
35.342600	534.370000	5.087590
34.296300	536.561000	5.098350
32.919300	534.573000	5.047410
33.026500	535.968000	5.068410
36.831400	537.757000	5.106450
36.720400	536.361000	5.100500
36.497100	533.576000	5.085020
36.389000	532.179000	5.076230
36.165900	529.393000	5.055340
33.627900	528.196000	5.003160
28.781200	528.589000	4.669370
27.511800	527.991000	4.496610
27.728000	516.042000	4.582990
30.188000	515.852000	4.802510
28.909200	515.270000	4.704910
26.390400	528.789000	4.237640
24.092900	529.057000	3.634140
25.099100	528.193000	4.034080
26.623600	530.186000	4.181810
25.603900	531.030000	3.794340
24.454700	530.419000	3.408510
35.121500	531.584000	5.064760
35.012100	530.188000	5.051610
33.968600	532.380000	5.053690
32.702600	531.785000	5.011480
32.594400	530.388000	4.993130
33.745500	529.591000	5.021790
30.831400	538.946000	5.046480
31.986900	538.155000	5.075250
29.927200	542.539000	5.070140
32.225600	540.944000	5.125470
29.823000	541.142000	5.042230
30.964600	540.340000	5.084600
36.543800	565.847000	5.010410
36.651500	567.247000	5.018780
33.169300	553.521000	4.895290
36.321800	563.069000	4.992790
35.159300	563.861000	4.995150
33.769800	561.873000	4.974000
33.884200	563.272000	4.986150
37.376200	560.878000	4.980200
36.212500	561.670000	4.981930
34.828200	559.686000	4.956830
34.935500	561.084000	4.971570
16.392100	514.615000	4.957090
17.504200	515.468000	4.869200
18.998300	513.581000	4.777980
18.818400	514.966000	4.773690
18.378800	517.706000	4.718510
20.754900	518.046000	4.304650
19.686700	517.183000	4.574180
20.424000	519.421000	4.211580
16.267100	531.549000	4.780420
17.926700	562.053000	5.078150
16.808900	561.210000	5.116480
17.662500	563.435000	5.044350
16.371200	563.981000	5.072320
15.268000	563.125000	5.100890
15.498000	561.741000	5.113290
14.378800	560.897000	5.105540
13.071400	561.420000	5.090880
24.336000	549.254000	5.506060
23.342100	550.084000	5.991530
25.623800	549.869000	5.354880
25.848100	551.262000	5.458210
23.704700	551.431000	6.300380
24.833000	552.074000	5.904190
18.820600	555.202000	5.480400
19.948300	556.036000	5.535680
18.942200	553.819000	5.613080
17.879100	552.947000	5.382780
19.317600	551.017000	5.600700
18.067200	551.562000	5.350240
12.551500	556.432000	5.027470
23.618500	555.596000	5.700420
22.382900	556.258000	5.636630
23.675800	554.230000	6.004930
21.208400	555.491000	5.775600
20.858400	559.603000	5.127860
21.009900	558.213000	5.281540
19.505200	560.129000	5.114790
19.833500	557.416000	5.342890
18.352100	559.312000	5.160690
18.527500	557.930000	5.233950
20.984900	549.131000	5.552910
19.651000	549.653000	5.436420
20.055900	522.237000	4.265500
19.930700	523.626000	4.378810
18.640400	524.131000	4.580540
17.536600	523.266000	4.697420
17.351000	532.426000	4.662930
22.032500	533.128000	3.780790
20.696500	535.032000	4.309400
21.970600	534.501000	4.066770
19.567500	534.182000	4.399330
20.063300	529.983000	4.145250
21.030000	530.887000	3.762040
18.812900	530.515000	4.431670
18.630100	531.907000	4.457060
20.925200	532.274000	3.891460
19.693800	532.796000	4.257290
28.864500	544.745000	5.041140
29.062800	547.520000	5.039450
27.787300	546.932000	5.044980
27.707100	545.542000	5.001740
20.666000	541.462000	3.997800
19.695300	540.542000	4.326190
21.666500	543.701000	4.158150
20.561300	542.840000	4.190960
19.322200	543.347000	4.538180
32.969800	550.721000	4.926640
32.866300	549.324000	4.963740
31.819400	551.521000	4.905650
31.905500	552.920000	4.890730
29.417100	551.710000	4.940670
30.562500	550.911000	4.924320
29.495800	553.111000	4.933070
30.752000	553.722000	4.896500
32.830800	565.466000	4.991070
34.211200	567.455000	5.011990
34.106000	566.055000	5.003570
29.254400	566.488000	4.898280
30.402300	565.674000	4.947040
31.673800	566.267000	4.977860
29.917100	560.081000	4.939650
30.042600	561.478000	4.941620
31.097500	559.303000	4.936690
31.323700	562.071000	4.959710
32.379400	559.887000	4.946750
32.491600	561.285000	4.961700
25.629200	566.113000	4.478450
25.620500	564.716000	4.418550
24.438100	564.102000	4.194490
31.583000	517.840000	4.884230
30.313000	517.245000	4.800660
36.053300	527.998000	5.043610
37.209200	527.204000	5.044530
37.098600	525.809000	5.036860
34.784200	527.403000	5.022380
35.501600	521.034000	5.011620
37.433700	529.988000	5.061820
26.382500	514.060000	4.416780
31.354000	515.069000	4.876260
27.193100	523.848000	4.398580
27.351800	526.601000	4.519750
26.054900	526.023000	4.365770
26.010700	524.624000	4.284020
24.776200	524.009000	4.040510
23.531600	524.707000	4.071580
22.334400	523.935000	4.031600
21.391700	520.316000	3.811760
21.287000	521.706000	3.910730
22.394800	522.556000	3.777890
25.466300	517.624000	4.104610
36.438100	548.327000	4.995630
33.915400	547.131000	5.031210
34.019200	548.528000	4.989260
35.285200	549.125000	4.976290
32.648900	546.533000	5.054740
31.493900	547.329000	5.032910
30.130300	545.339000	5.077670
30.225700	546.733000	5.053750
37.487700	546.131000	5.035150
36.335100	546.930000	5.026140
35.068500	546.333000	5.047430
32.334400	542.341000	5.131430
31.187200	543.142000	5.114630
31.282500	544.540000	5.103430
32.548100	545.137000	5.093460
33.374700	540.145000	5.129820
34.639400	540.745000	5.131080
35.790600	539.949000	5.121860
35.677600	538.552000	5.117980
34.409800	537.956000	5.114170
33.255300	538.751000	5.112910
37.056800	540.545000	5.106190
33.253200	554.921000	4.899360
33.451100	557.703000	4.926440
32.174600	557.117000	4.914560
32.090700	555.718000	4.900300
18.118500	519.085000	4.697740
19.173400	519.960000	4.484870
16.831800	519.615000	4.822650
16.627200	521.002000	4.809240
17.712200	521.877000	4.678150
18.991300	521.353000	4.483000
13.753400	565.042000	5.072670
13.966500	563.657000	5.092490
12.855800	562.804000	5.088660
20.167500	553.283000	5.969870
22.564800	552.191000	6.541100
21.474300	551.340000	6.373710
20.278900	551.895000	6.043710
22.508300	553.552000	6.328120
21.272800	554.131000	6.086610
12.744700	555.047000	5.006190
13.467200	558.670000	5.076050
13.661600	557.286000	5.064190
14.587100	559.514000	5.102940
15.896900	558.998000	5.126160
14.868200	548.987000	4.957010
17.011000	550.696000	5.130120
13.767600	548.127000	4.942510
22.735000	547.234000	5.063020
21.340500	547.790000	5.198790
22.788300	545.817000	4.719970
21.601700	545.052000	4.539380
21.357000	538.657000	4.158230
21.714400	537.282000	4.299080
20.553600	536.421000	4.421820
19.218700	536.914000	4.569560
20.026300	539.165000	4.351000
18.958500	538.289000	4.569840
24.470900	537.366000	4.336370
23.114700	536.718000	4.265020
23.165900	535.273000	4.133040
24.410200	534.577000	4.093610
25.685000	536.582000	4.479770
25.641800	535.187000	4.362410
16.397300	547.092000	4.963810
16.171200	548.468000	4.989430
17.270800	549.323000	5.082080
18.580000	548.802000	5.164830
16.781000	536.560000	4.789140
17.173900	533.814000	4.706130
18.276600	534.682000	4.607160
18.094900	536.063000	4.670470
17.649500	538.803000	4.725780
16.552700	537.938000	4.818760
18.255800	542.452000	4.666370
16.097900	540.702000	4.877840
18.440400	541.064000	4.604670
17.385800	540.179000	4.757270
34.233100	551.322000	4.925130
34.324900	552.722000	4.910420
36.652700	551.120000	4.949830
35.385800	550.523000	4.948290
23.305700	564.888000	4.086360
21.012200	564.627000	4.483600
22.217100	564.058000	4.242840
32.974200	519.836000	4.950340
30.568300	520.034000	4.806510
31.711700	519.235000	4.891170
28.447400	524.434000	4.604940
28.529600	525.827000	4.648140
33.401200	525.416000	4.971840
34.671900	526.008000	5.009510
35.828900	525.215000	5.023990
35.720800	523.820000	5.017960
35.393400	519.638000	5.008620
34.126600	519.041000	4.984250
36.214800	514.665000	5.009360
31.256700	513.673000	4.874390
27.886800	517.431000	4.534710
26.760900	518.224000	4.279250
29.158500	518.032000	4.680570
29.318300	519.425000	4.674910
28.286700	521.636000	4.487490
28.207200	520.234000	4.474270
26.993300	519.620000	4.196180
27.166200	522.454000	4.278810
23.033300	518.439000	3.708820
24.454500	518.480000	3.702860
22.582700	519.769000	3.457520
37.384000	544.734000	5.060040
37.164500	541.942000	5.097220
33.597900	542.941000	5.127150
36.117600	544.138000	5.084460
34.965600	544.936000	5.081540
33.700000	544.339000	5.105160
34.748000	542.142000	5.125730
36.013100	542.741000	5.105430
34.617400	556.911000	4.926400
34.524500	555.512000	4.914140
15.671900	535.701000	4.851600
15.872000	534.317000	4.823190
14.970300	532.066000	4.873210
14.771400	533.452000	4.885370
13.467200	533.962000	4.940990
13.875000	531.197000	4.926170
12.573600	531.712000	4.965110
13.137400	552.277000	4.959600
13.345200	550.894000	4.943290
15.727100	551.231000	5.036180
14.638700	550.366000	4.964780
14.042600	554.527000	5.031200
16.607100	553.480000	5.197690
15.522200	552.614000	5.066800
14.232000	553.143000	5.008220
16.083400	557.616000	5.141010
17.386800	557.106000	5.214130
17.542900	555.722000	5.284120
14.964200	556.772000	5.097960
16.438000	554.867000	5.187800
15.144900	555.387000	5.097340
36.769800	521.629000	5.024490
36.877000	523.025000	5.027110
18.838900	547.437000	5.035110
20.179000	546.947000	4.995790
20.323200	545.574000	4.757260
17.711900	546.596000	4.955040
19.193100	544.725000	4.726920
17.894900	545.219000	4.866390
36.749200	552.518000	4.938460
35.592800	553.317000	4.921870
35.685300	554.715000	4.922980
36.957700	555.305000	4.938680
19.643300	566.567000	4.728750
20.901700	566.019000	4.514590
24.463000	566.904000	4.398370
23.259500	566.247000	4.229540
22.025200	566.852000	4.407010
30.669200	521.433000	4.808830
29.529100	522.239000	4.687660
29.605000	523.637000	4.718130
30.871000	524.225000	4.835130
30.970300	525.621000	4.854210
32.242500	526.208000	4.931010
29.933100	527.799000	4.792290
29.806600	526.406000	4.774210
32.358600	527.602000	4.950080
31.202100	528.393000	4.896170
34.451500	523.226000	4.994330
34.347300	521.829000	4.991220
33.080800	521.233000	4.953440
31.930200	522.032000	4.898460
33.295400	524.021000	4.962150
32.026400	523.429000	4.904860
33.786700	514.866000	4.969600
32.741100	517.051000	4.937740
32.626900	515.657000	4.932790
35.057300	515.458000	4.995790
34.010700	517.646000	4.978380
35.167900	516.854000	4.999710
28.827600	513.876000	4.688380
23.672000	520.614000	3.292350
24.813300	522.629000	3.785280
23.624600	521.969000	3.520230
25.973200	521.849000	3.917280
25.968300	520.456000	3.807400
24.814300	519.838000	3.449200
37.055500	556.703000	4.946830
37.270400	559.481000	4.968970
35.994000	558.896000	4.956030
35.892700	557.497000	4.942480
15.012000	539.831000	4.930890
15.246500	538.451000	4.905120
13.714400	540.352000	4.977470
12.619400	539.485000	4.994570
37.484300	515.259000	5.018050
36.548300	518.844000	5.019100
36.437100	517.448000	5.015530
12.841100	538.103000	4.981770
13.259700	535.346000	4.952830
14.363800	536.207000	4.920810
14.145500	537.588000	4.942060
13.984000	546.746000	4.950620
12.882700	545.884000	4.962490
15.288900	546.237000	4.949880
13.090300	544.502000	4.974650
13.499900	541.734000	4.984500
14.391600	543.988000	4.960660
16.971600	542.966000	4.832610
15.888600	542.087000	4.900340
14.592300	542.605000	4.957330
16.792200	544.350000	4.884940
15.489300	544.855000	4.937910
